# .PCD v0.7 - Point Cloud Data file format
VERSION 0.7
FIELDS x y z intensity
SIZE 4 4 4 4
TYPE F F F F
COUNT 1 1 1 1
WIDTH 108
HEIGHT 1
VIEWPOINT 0 0 0 1 0 0 0
POINTS 108
DATA ascii
9.1501989 0.6687392 -0.16014329 4
9.1865702 0.60695171 -0.16070175 40
9.1547041 0.57276016 -0.16010839 40
9.1485682 0.5419234 -0.15996876 44
9.1873388 0.52974015 0.16063195 8
9.1444149 0.5096494 -0.15986405 37
9.1541252 0.47814983 -0.16000366 44
9.194808 0.46578991 0.16070175 42
9.1477489 0.44580129 -0.15986405 44
9.2023706 0.43397576 0.16080648 35
9.1432562 0.41359341 -0.15975933 40
9.2018318 0.40176114 0.16077158 48
9.1406488 0.38151014 -0.15968952 42
9.1871929 0.36899823 0.16049233 45
9.137928 0.3494457 -0.15961972 42
9.1764336 0.33648452 0.16028289 45
9.1390924 0.31755257 -0.15961972 42
9.1795521 0.30451468 0.16031781 44
9.2044039 0.30212721 0.48264223 11
9.1441431 0.28577173 -0.15968952 40
9.1825581 0.27253583 0.16035272 46
9.1974173 0.26976374 0.48222357 18
9.1410866 0.25373754 -0.15961972 42
9.1874514 0.24058329 0.16042252 48
9.2162724 0.23811893 0.48316559 25
9.1359186 0.22168405 -0.15951499 44
9.1802378 0.20833208 0.16028289 45
9.2270317 0.20616733 0.48368895 30
9.1366377 0.18978995 -0.15951499 44
9.1729126 0.17612982 0.16014329 46
9.22367 0.1754941 0.48347965 32
9.0901108 0.16025724 -0.47646657 20
9.1372166 0.15949255 -0.15951499 44
9.1774445 0.14577572 0.16021308 45
9.220232 0.14323629 0.48327026 30
9.0846014 0.13002421 -0.47615257 31
9.141717 0.12765452 -0.15958481 44
9.1738987 0.11369196 0.16014329 45
9.2166824 0.11100026 0.48306093 30
9.1089659 0.098573491 -0.47740865 31
9.1361084 0.095677949 -0.15948009 47
9.1782389 0.081701525 0.16021308 46
9.2130194 0.078795135 0.48285159 30
9.1112509 0.066793226 -0.47751331 54
9.120389 0.063672274 -0.15920086 49
9.1784678 0.049660552 0.16021308 48
9.2132387 0.046632759 0.48285159 30
9.2505541 0.045207165 0.8093282 25
9.0914564 0.034909498 -0.47646657 45
9.1285543 0.03186563 -0.15934047 49
9.1665869 0.017600313 0.16000366 48
9.2173395 0.014476091 0.48306093 30
9.2486649 0.011301493 0.80915391 30
9.0875292 0.0015887218 -0.47625723 51
9.1246109 -0 -0.15927066 49
9.1705894 -0.016005713 0.16007347 45
9.2153368 -0.017692199 0.48295626 31
9.2566185 -0.021002637 0.80985117 34
9.0834846 -0.030122085 -0.4760479 51
9.1245556 -0.031850833 -0.15927066 49
9.1704865 -0.046416398 0.16007347 49
9.2072287 -0.049816392 0.48253757 31
9.2544966 -0.053302661 0.80967689 32
9.0813379 -0.060230598 -0.47594327 54
9.1283875 -0.063729197 -0.15934047 49
9.1822653 -0.078529678 0.16028289 46
9.2109938 -0.081990875 0.48274687 31
9.0910568 -0.092031091 -0.47646657 63
9.1161118 -0.095467173 -0.15913104 49
9.1659393 -0.11038865 0.16000366 48
9.2146463 -0.11419224 0.48295626 31
9.0747042 -0.12354673 -0.47562921 40
9.1177235 -0.1273157 -0.15916595 47
9.1615 -0.14232096 0.15993385 48
9.2141914 -0.14635667 0.48295626 31
9.1172237 -0.15914172 -0.15916595 50
9.1649456 -0.17437577 0.16000366 49
9.207633 -0.1784032 0.48264223 30
9.1226091 -0.19109142 -0.15927066 49
9.1562843 -0.20618628 0.15986405 48
9.204958 -0.21049711 0.48253757 31
9.1178885 -0.22283641 -0.15920086 49
9.1695023 -0.23851039 0.16010839 50
9.2041664 -0.24262711 0.48253757 31
9.1070604 -0.25438324 -0.15902632 50
9.1586199 -0.27022159 0.15993385 46
9.2072573 -0.27487338 0.48274687 31
9.1101141 -0.28629684 -0.15909614 52
9.1496258 -0.30192569 0.15979423 49
9.2102337 -0.30714419 0.48295626 31
9.117054 -0.31837451 -0.15923576 52
9.1605062 -0.33429956 0.16000366 49
9.2051725 -0.33753833 0.48274687 31
9.105957 -0.34822395 -0.15906124 16
9.1593475 -0.36467505 0.16000366 48
9.1960201 -0.36774275 0.48232824 31
9.1620836 -0.39521891 0.16007347 52
9.1966753 -0.39992738 0.4824329 32
9.1606483 -0.42719814 0.16007347 48
9.199213 -0.43221477 0.48264223 30
9.1511126 -0.45877168 0.15993385 46
9.2016392 -0.46452481 0.48285159 30
9.1534481 -0.49092638 0.16000366 49
9.1979666 -0.49653402 0.48274687 31
9.151679 -0.52287489 0.16000366 49
9.1921892 -0.52840859 0.48253757 31
9.1557865 -0.55518019 0.16010839 41
9.1902885 -0.56049216 0.48253757 21
