# .PCD v0.7 - Point Cloud Data file format
VERSION 0.7
FIELDS x y z intensity
SIZE 4 4 4 4
TYPE F F F F
COUNT 1 1 1 1
WIDTH 267
HEIGHT 1
VIEWPOINT 0 0 0 1 0 0 0
POINTS 267
DATA ascii
5.8629093 0.65245217 -0.10296919 27
5.8354988 0.60818887 -0.10241073 30
5.8535037 0.58941662 -0.10268996 43
5.8654766 0.56994873 -0.10286448 50
5.8395572 0.54685909 -0.10237581 46
5.8583302 0.53933614 0.10268996 10
5.8354549 0.52593458 -0.1022711 45
5.8781047 0.52046925 0.10300411 31
5.8392482 0.50573564 -0.10230601 46
5.8440199 0.49690214 0.10237581 28
5.8349147 0.4858698 -0.1022013 45
5.8595867 0.47865799 0.10262015 33
5.8424735 0.46699703 -0.10230601 46
5.8591485 0.45906925 0.10258525 46
5.836092 0.44598904 -0.10216638 46
5.8567266 0.43831414 0.10251543 46
5.8296361 0.42503417 -0.10202677 46
5.8542318 0.41758436 0.10244562 46
5.8330789 0.40481925 -0.10206167 45
5.8516641 0.39687455 0.10237581 46
5.8252206 0.38589031 -0.30595604 16
5.834456 0.38445672 -0.10206167 47
5.8450313 0.37593386 0.1022362 46
5.8125792 0.36467716 -0.30522332 35
5.8397546 0.36433864 -0.10213149 47
5.8423157 0.35528427 0.10216638 45
5.8572512 0.35414335 0.30752611 19
5.8257794 0.34509513 -0.30585137 43
5.8290133 0.343245 -0.10192205 47
5.8515062 0.33534753 0.10230601 48
5.8603868 0.33483034 0.30763078 18
5.8309364 0.32497796 -0.3060607 48
5.8221331 0.32347086 -0.10178243 47
5.8406057 0.31529301 0.10209658 46
5.8575311 0.31415623 0.30742142 21
5.8160257 0.30480504 -0.30522332 45
5.8232269 0.30314431 -0.10178243 45
5.8336816 0.29450148 0.10195696 45
5.8526082 0.29340899 0.30710742 21
5.8090749 0.28411242 -0.30480465 45
5.8282447 0.28300804 -0.10185225 45
5.8386693 0.27432251 0.10202677 49
5.849606 0.27279291 0.30689809 20
5.7981062 0.2622762 -0.3041766 35
5.827199 0.26257592 -0.10181734 46
5.83564 0.25274909 0.10195696 49
5.8465323 0.25219861 0.30668873 21
5.8029776 0.24220322 -0.30438596 35
5.8300781 0.24231511 -0.10185225 53
5.848434 0.23387662 0.10216638 48
5.8433857 0.23163189 0.30647939 21
5.8590813 0.23020302 0.5129987 2
5.8057442 0.22303633 -0.30449063 43
5.8188987 0.22150768 -0.10164282 47
5.837225 0.21302123 0.10195696 45
5.8441219 0.21225442 0.30647939 21
5.8184638 0.20318584 -0.30511865 46
5.8176031 0.20214204 -0.10160792 46
5.8299046 0.19339631 0.10181734 49
5.8448267 0.19185178 0.30647939 21
5.8664865 0.1905129 0.51352161 25
5.807128 0.18350989 -0.30449063 46
5.8242693 0.18201941 -0.10171262 53
5.8325734 0.17208759 0.10185225 51
5.8454909 0.17042941 0.30647939 21
5.8691072 0.17009002 0.5136959 25
5.7977791 0.16194691 -0.30396727 45
5.8288946 0.16077995 -0.10178243 53
5.8331385 0.1517283 0.10185225 49
5.8340707 0.14971483 0.30585137 21
5.8696651 0.14960322 0.5136959 30
5.7821307 0.14333317 -0.50602621 0
5.7963123 0.14165756 -0.3038626 46
5.8114285 0.14000012 -0.10146829 50
5.8336329 0.13136715 0.10185225 54
5.842545 0.12952751 0.30627003 21
5.8601923 0.12889552 0.51282436 27
5.7666602 0.12280799 -0.50463176 9
5.8087521 0.12167598 -0.30449063 46
5.8078833 0.11963245 -0.10139848 50
5.8300567 0.11092553 0.10178243 51
5.8389668 0.10905627 0.3060607 21
5.8546309 0.10832672 0.51230145 26
5.7451406 0.1022889 -0.50271428 14
5.8031511 0.10129555 -0.3041766 45
5.8142643 0.099459492 -0.1015032 53
5.8264098 0.090513267 0.10171262 49
5.8432908 0.089752704 0.30627003 21
5.8489966 0.087801099 0.51177853 25
5.7673769 0.082546122 -0.50463176 21
5.7974782 0.080955721 -0.3038626 46
5.8165612 0.080204114 -0.1015381 50
5.822679 0.071141228 0.10164282 51
5.8375769 0.069288164 0.30595604 21
5.8572364 0.067474 0.51247573 27
5.8695407 0.06659124 0.72073537 6
5.7755995 0.062501162 -0.50532901 28
5.7937198 0.061686009 -0.30365324 43
5.8188052 0.05992185 -0.10157301 53
5.8308897 0.050884094 0.10178243 54
5.8317919 0.048859045 0.30564201 22
5.8574281 0.048048705 0.51247573 27
5.7717896 0.04331949 -0.50498033 25
5.791903 0.041445944 -0.30354857 45
5.8069811 0.039529618 -0.10136358 53
5.8310318 0.030534191 0.10178243 52
5.8379188 0.028529722 0.30595604 21
5.8495908 0.027568644 0.51177853 29
5.8778024 0.025647145 0.72171032 33
5.7679214 0.023154389 -0.50463176 24
5.8039961 0.02127609 -0.3041766 45
5.8030844 0.019244419 -0.10129377 53
5.8231044 0.01016439 0.10164282 52
5.8359857 0.0081498493 0.30585137 21
5.8536358 0.0071529052 0.51212716 27
5.8937373 0.0051447265 0.72366023 30
5.7580051 0.0030136961 -0.50376016 27
5.7960463 0.0010132903 -0.30375794 45
5.8031163 -0.0010128348 -0.10129377 53
5.8151059 -0.010149284 0.1015032 51
5.8399725 -0.012231227 0.3060607 21
5.8576102 -0.013290518 0.51247573 26
5.8778386 -0.015388179 0.72171032 34
5.7639575 -0.017102057 -0.50428313 30
5.7920194 -0.019207135 -0.30354857 50
5.8110762 -0.021298802 -0.10143339 53
5.8190341 -0.030468667 0.10157301 54
5.8359003 -0.032594156 0.30585137 22
5.8535438 -0.033714361 0.51212716 26
5.8618684 -0.03580856 0.71976036 34
5.7658548 -0.037234783 -0.50445741 32
5.7839284 -0.039370559 -0.30312988 45
5.8129659 -0.041597422 -0.10146829 61
5.8228917 -0.050815605 0.10164282 52
5.8257647 -0.052874409 0.30532798 23
5.8573742 -0.054183688 0.51247573 27
5.8617077 -0.056270085 0.71976036 35
5.7696743 -0.057400789 -0.50480604 32
5.7817588 -0.059539434 -0.30302522 46
5.8067865 -0.06182434 -0.10136358 53
5.8266778 -0.071189843 0.10171262 52
5.8315358 -0.073285095 0.30564201 22
5.8531651 -0.07457865 0.51212716 27
5.8694158 -0.076834865 0.72073537 33
5.7654543 -0.077486813 -0.50445741 33
5.7875071 -0.079803787 -0.30333924 50
5.7945385 -0.081923813 -0.10115415 53
5.8183956 -0.091402657 0.10157301 54
5.8352389 -0.093704656 0.30585137 22
5.8488851 -0.094944879 0.51177853 27
5.8691115 -0.097322471 0.72073537 34
5.7611651 -0.097544074 -0.50410885 33
5.7931833 -0.10010897 -0.30365324 46
5.8002152 -0.10225578 -0.10125886 57
5.8120432 -0.11159694 0.10146829 55
5.8328795 -0.11403383 0.3057467 21
5.8445344 -0.11528214 0.51142991 28
5.8667512 -0.11776906 0.72049159 39
5.7568049 -0.11757233 -0.50376016 32
5.7808185 -0.12008149 -0.30302522 46
5.7998228 -0.12250167 -0.10125886 57
5.8136182 -0.13192944 0.1015032 52
5.8304486 -0.13434766 0.30564201 22
5.8480797 -0.13577515 0.51177853 28
5.8563819 -0.13801329 0.71927297 35
5.778367 -0.14021112 -0.30292055 50
5.805357 -0.1428937 -0.10136358 53
5.8131223 -0.15222198 0.1015032 57
5.8259521 -0.15459296 0.30543268 22
5.8515539 -0.15629433 0.51212716 28
5.8558645 -0.15845503 0.71927297 35
5.7838316 -0.16054679 -0.30323455 56
5.7968278 -0.16293259 -0.10122395 53
5.818552 -0.17269059 0.10160792 55
5.8253765 -0.17492838 0.30543268 22
5.8430066 -0.17647853 0.51142991 28
5.8592434 -0.17901608 0.71976036 33
5.78124 -0.18067278 -0.30312988 50
5.7902274 -0.18297683 -0.10111924 61
5.8119178 -0.19280119 0.1015032 52
5.8287563 -0.19437818 0.30564201 22
5.8383727 -0.19673914 0.51108128 28
5.866519 -0.19973776 0.72073537 33
5.7865624 -0.20106004 -0.30344391 56
5.7935858 -0.20231646 -0.10118905 57
5.8032522 -0.2117814 0.10136358 52
5.8300385 -0.21479671 0.3057467 21
5.8416324 -0.21726577 0.51142991 28
5.8578892 -0.21889421 0.71976036 34
5.7818718 -0.2200959 -0.30323455 56
5.7928443 -0.22253864 -0.10118905 61
5.8124685 -0.23243676 0.1015381 55
5.8272572 -0.2350655 0.30564201 22
5.8408794 -0.23663612 0.51142991 30
5.8531232 -0.23917867 0.71927297 33
5.7651043 -0.23961355 -0.30239719 56
5.800024 -0.24309301 -0.10132867 61
5.8176155 -0.2529853 0.10164282 57
5.8184199 -0.25505516 0.30522332 22
5.8439984 -0.25719836 0.51177853 28
5.8502688 -0.25952041 0.71902919 31
5.7762046 -0.26027551 -0.30302522 56
5.7911496 -0.26297456 -0.10118905 61
5.8067093 -0.27282175 0.10146829 55
5.8214846 -0.27555257 0.30543268 22
5.8390851 -0.27740708 0.51142991 29
5.7872295 -0.28101781 -0.30365324 56
5.782207 -0.28279713 -0.10104944 61
5.8057213 -0.29308927 0.10146829 55
5.8224816 -0.295973 0.30553734 23
5.830122 -0.29738158 0.51073265 28
5.7851787 -0.30318838 -0.10111924 61
5.8006692 -0.31313765 0.10139848 55
5.8234072 -0.31640381 0.30564201 22
5.8330274 -0.31794757 0.51108128 28
5.7960644 -0.32405031 -0.10132867 67
5.801538 -0.33349863 0.10143339 52
5.8162851 -0.33638343 0.30532798 21
5.831882 -0.33830673 0.51108128 30
5.7988901 -0.34451756 -0.10139848 67
5.8003383 -0.35374776 0.10143339 54
5.8150754 -0.356684 0.30532798 23
5.8386202 -0.35915101 0.51177853 30
5.7816868 -0.36375284 -0.10111924 61
5.8070502 -0.37450731 0.10157301 54
5.8177819 -0.37723872 0.30553734 23
5.8333545 -0.37927094 0.51142991 29
5.7763915 -0.3836675 -0.10104944 61
5.8037128 -0.39463976 0.1015381 55
5.8184218 -0.3976804 0.30564201 22
5.8240438 -0.39908594 0.51073265 28
5.7790065 -0.40410745 -0.10111924 46
5.8003054 -0.41475347 0.1015032 57
5.8209829 -0.41827443 0.30585137 22
5.8265901 -0.41969952 0.51108128 28
5.7835431 -0.42471686 -0.10122395 53
5.7968278 -0.43484822 0.10146829 55
5.8194876 -0.43859091 0.30585137 22
5.8330359 -0.44063583 0.51177853 28
5.7820253 -0.44490263 -0.10122395 32
5.8012547 -0.4555499 0.10157301 52
5.8099566 -0.4582738 0.30543268 22
5.8314624 -0.46099427 0.51177853 28
5.8056083 -0.47628781 0.10167772 55
5.8123026 -0.47887954 0.30564201 22
5.8298178 -0.48134702 0.51177853 27
5.7939491 -0.49569798 0.1015032 54
5.8125854 -0.49933627 0.3057467 21
5.8161917 -0.50066876 0.51073265 29
5.7881994 -0.51556474 0.10143339 54
5.8127966 -0.51980084 0.30585137 21
5.8342528 -0.52274603 0.51247573 25
5.7863646 -0.53576624 0.10143339 54
5.8049803 -0.53953362 0.30553734 21
5.7944121 -0.55691773 0.10160792 55
5.8011713 -0.55858928 0.30543268 22
5.7985024 -0.57672334 0.10171262 54
5.8012743 -0.57802159 0.30553734 21
5.7905912 -0.59533525 0.10160792 48
5.805182 -0.59888315 0.30585137 21
5.8070273 -0.6195671 0.3060607 21
5.8028445 -0.63961482 0.30595604 21
5.7926383 -0.65896362 0.30553734 21
5.7962542 -0.67987782 0.30585137 21
5.7958283 -0.70034587 0.30595604 21
5.8031321 -0.72281832 0.30647939 21
5.7886872 -0.74154794 0.30585137 20
