# .PCD v0.7 - Point Cloud Data file format
VERSION 0.7
FIELDS x y z intensity
SIZE 4 4 4 4
TYPE F F F F
COUNT 1 1 1 1
WIDTH 90
HEIGHT 1
VIEWPOINT 0 0 0 1 0 0 0
POINTS 90
DATA ascii
9.8945551 0.95448256 -0.17351182 19
9.8978271 0.91993564 -0.17351182 37
9.9287081 0.88960391 -0.17400049 40
9.9559889 0.87628698 0.17445426 43
9.9017191 0.85410315 -0.17347692 40
9.9588404 0.84326893 0.17445426 33
9.8986607 0.81903714 -0.17337219 40
9.9597292 0.80834132 0.17441934 43
9.8994656 0.7843188 -0.1733373 42
9.9406948 0.77013481 0.17403539 41
9.9062624 0.74833363 -0.17340712 42
9.9493055 0.73587042 0.17414011 43
9.9128036 0.7140345 -0.17347692 42
9.9518137 0.70113373 0.17414011 42
9.9091311 0.68075407 -0.17337219 44
9.9540834 0.66813052 0.17414011 42
9.9918919 0.66891658 0.52482504 0
9.9073429 0.64762682 -0.1733024 44
9.9482622 0.63460594 0.17400049 42
9.9702473 0.63251901 0.52356899 13
9.91154 0.61316061 -0.1733373 47
9.9465284 0.5979017 0.17393069 42
9.9844599 0.59668422 0.52419698 20
9.9157171 0.57694721 -0.17337219 44
9.9486532 0.56144404 0.17393069 45
10.000441 0.56261575 0.5249297 27
9.9176702 0.54232877 -0.17337219 44
9.9504604 0.52844721 0.17393069 45
9.9903774 0.52707505 0.52430165 27
9.8693428 0.50859499 -0.51791668 19
9.9215002 0.50781542 -0.17340712 47
9.9602337 0.49410883 0.17407031 41
9.9941511 0.49229449 0.52440631 30
9.8610821 0.47365969 -0.51739335 34
9.9152231 0.4727962 -0.1732675 47
9.953907 0.45897183 0.17393069 42
10.009775 0.45804185 0.52513903 31
9.8886147 0.4403972 -0.51875407 44
9.9008303 0.43747389 -0.17298825 43
9.9514532 0.42405045 0.17386088 41
10.011239 0.42485249 0.52513903 31
9.8821087 0.40554655 -0.51833534 51
9.9062233 0.40479973 -0.17305806 45
9.9568005 0.39120221 0.17393069 43
10.006673 0.38966832 0.52482504 33
9.8654366 0.37209389 -0.51739335 57
9.9115715 0.3703742 -0.17312786 45
9.9621019 0.356594 0.17400049 47
10.003981 0.35459197 0.52461565 33
10.057305 0.3547295 0.88044727 7
9.8666754 0.33765689 -0.51739335 57
9.9048109 0.33550069 -0.17298825 45
9.9672832 0.32194406 0.17407031 43
10.013142 0.31992662 0.52503437 32
9.905921 0.30092651 -0.17298825 45
9.9563541 0.28680164 0.17386088 41
10.010205 0.28485602 0.52482504 32
9.9069109 0.26634392 -0.17298825 45
9.9572945 0.25204784 0.17386088 43
10.019125 0.25011364 0.5252437 32
9.9137774 0.23189837 -0.17309296 47
9.9621115 0.21737346 0.17393069 43
10.01195 0.21496467 0.52482504 33
9.912528 0.1972537 -0.17305806 45
9.9628105 0.18259996 0.17393069 45
10.008645 0.17994542 0.52461565 32
9.9111567 0.1626206 -0.17302316 47
9.971384 0.14793816 0.17407031 45
10.0172 0.14512548 0.52503437 32
9.9156628 0.12807696 -0.17309296 47
9.9678402 0.11308736 0.17400049 45
10.021641 0.11019929 0.5252437 33
9.9140501 0.093442574 -0.17305806 49
9.9641619 0.080002077 0.17393069 45
10.021951 0.076962955 0.5252437 32
9.9223042 0.060612001 -0.17319769 49
9.9643803 0.045217518 0.17393069 43
10.016167 0.041961137 0.5249297 34
9.9724779 0.0087051177 0.17407031 45
10.014255 0.0069938726 0.52482504 33
9.9764519 -0.024377121 0.17414011 43
10.018212 -0.027976198 0.52503437 33
9.9723063 -0.059177551 0.17407031 42
10.026044 -0.062996313 0.52545309 32
9.9680395 -0.093949333 0.17400049 43
10.031754 -0.098051913 0.52576709 24
9.9776487 -0.12887284 0.17417502 46
9.9811363 -0.16376616 0.17424482 46
9.980504 -0.19860584 0.17424482 46
9.9817486 -0.23348981 0.17427972 7
