# .PCD v0.7 - Point Cloud Data file format
VERSION 0.7
FIELDS x y z intensity
SIZE 4 4 4 4
TYPE F F F F
COUNT 1 1 1 1
WIDTH 61
HEIGHT 1
VIEWPOINT 0 0 0 1 0 0 0
POINTS 61
DATA ascii
11.904267 0.81573188 -0.20827703 7
11.912892 0.77663839 -0.20838173 37
11.913537 0.73492366 -0.20834683 31
11.980672 0.71808457 0.20949869 30
11.900179 0.69032955 -0.2080676 31
11.981227 0.67405295 0.20946379 28
11.908506 0.6491093 -0.20817231 33
11.983396 0.63431478 0.20946379 36
11.912697 0.60764128 -0.2082072 35
11.979546 0.5921874 0.20935906 30
11.906755 0.5656718 -0.2080676 35
11.985536 0.55054772 0.20942889 34
11.900665 0.52376246 -0.20792797 40
11.983387 0.50854564 0.20935906 32
11.906418 0.48237693 -0.20799777 40
11.973101 0.46624264 0.20914963 32
12.056468 0.46527448 0.63232309 3
11.910028 0.4408837 -0.2080327 37
11.978653 0.42458442 0.20921946 31
11.911426 0.40138856 -0.2080327 37
11.983993 0.38498452 0.20928925 30
12.059355 0.38319775 0.63232309 31
11.910754 0.35974959 -0.20799777 40
11.985262 0.34315848 0.20928925 32
12.060559 0.34320205 0.63232309 29
11.905885 0.32008564 -0.20789307 37
11.982338 0.30330753 0.20921946 30
12.055695 0.30095378 0.63200903 32
11.90693 0.27852121 -0.20789307 37
11.979323 0.26138905 0.20914963 31
12.068652 0.25912374 0.63263708 29
11.913827 0.23707841 -0.20799777 40
11.980163 0.21957433 0.20914963 33
12.061496 0.21685362 0.63221842 30
11.92258 0.19562371 -0.20813741 40
11.984857 0.17781058 0.20921946 31
12.058185 0.17469449 0.63200903 30
11.915192 0.15390414 -0.20799777 40
11.989403 0.13602243 0.20928925 33
12.058722 0.13259929 0.63200903 31
11.909657 0.11225171 -0.20789307 37
11.979807 0.094094776 0.20911473 33
12.063105 0.090538226 0.63221842 31
11.911976 0.070687257 -0.20792797 42
11.976062 0.052256227 0.20904493 32
12.075332 0.048474468 0.63284647 27
11.91615 0.029118549 -0.20799777 40
11.980172 0.010457662 0.20911473 32
12.067438 0.0063160057 0.63242775 29
11.920178 -0.012482786 -0.2080676 42
11.986135 -0.031379696 0.20921946 29
12.059397 -0.035781056 0.63200903 32
11.99195 -0.073255561 0.20932417 32
12.073193 -0.0758591 0.63274175 18
11.983644 -0.11294652 0.20918456 32
11.983176 -0.15477654 0.20918456 30
11.984562 -0.19663751 0.20921946 33
11.991798 -0.23862936 0.20935906 33
11.994893 -0.28058061 0.20942889 37
11.987843 -0.32228771 0.20932417 33
11.97865 -0.36388823 0.20918456 8
