# .PCD v0.7 - Point Cloud Data file format
VERSION 0.7
FIELDS x y z intensity
SIZE 4 4 4 4
TYPE F F F F
COUNT 1 1 1 1
WIDTH 197
HEIGHT 1
VIEWPOINT 0 0 0 1 0 0 0
POINTS 197
DATA ascii
6.6889362 0.63464868 -0.11728017 24
6.6831455 0.6105665 -0.11714055 48
6.6692996 0.58583581 -0.11686131 27
6.6872454 0.56389445 -0.11714055 36
6.6991386 0.54135174 -0.11731508 48
6.6930127 0.51735228 -0.11717546 51
6.6769147 0.49149475 -0.11686131 48
6.7155752 0.48373318 0.1175245 6
6.6765952 0.46804655 -0.11682641 45
6.6952772 0.45878938 0.11714055 30
6.6881652 0.4454006 -0.11700094 48
6.7307611 0.43761951 0.11773393 31
6.6856875 0.42180142 -0.11693113 48
6.7262597 0.41375521 0.11762922 46
6.6770687 0.39903027 -0.1167566 51
6.7295914 0.39156213 0.11766412 34
6.6783552 0.37688747 -0.1167566 55
6.710886 0.36814985 0.11731508 40
6.6836238 0.35378295 -0.11682641 51
6.7022047 0.34304115 0.11714055 42
6.6467514 0.32857028 -0.34876686 12
6.678884 0.32899019 -0.11672169 48
6.7054148 0.31856403 0.11717546 40
6.6159353 0.30389866 -0.34709209 27
6.68998 0.30612984 -0.11689622 51
6.7084322 0.29641593 0.11721037 42
6.6328702 0.28263929 -0.34792948 40
6.670979 0.28310004 -0.11654717 51
6.7113762 0.27424812 0.11724527 40
6.743207 0.27319446 0.35368642 21
6.6477408 0.2611894 -0.34866217 46
6.6639342 0.25949922 -0.11640756 45
6.7062974 0.25059998 0.11714055 42
6.7461152 0.2497267 0.35379109 26
6.6565962 0.23827323 -0.34908086 51
6.6707945 0.23644689 -0.11651226 48
6.6991377 0.22691654 0.11700094 42
6.7509379 0.2263121 0.35400045 27
6.6234512 0.213938 -0.34730142 38
6.6775751 0.21335301 -0.11661698 55
6.703886 0.20365365 0.11707074 42
6.7437015 0.20250396 0.35358176 27
6.6241579 0.19081476 -0.34730142 38
6.6842756 0.1902115 -0.11672169 57
6.704556 0.18024969 0.11707074 42
6.7363806 0.17875232 0.35316306 26
6.7896976 0.1789813 0.59422785 2
6.620791 0.16759132 -0.34709209 44
6.6789017 0.16672957 -0.11661698 55
6.7051449 0.15684354 0.11707074 42
6.7409577 0.1553303 0.35337242 26
6.7703619 0.15482244 0.59248471 16
6.6253281 0.14456478 -0.34730142 44
6.667448 0.14315552 -0.11640756 55
6.6976538 0.13327953 0.11693113 43
6.7374644 0.13171914 0.35316306 26
6.7788291 0.13134433 0.59318197 22
6.6277905 0.12147519 -0.34740612 48
6.6679072 0.1198823 -0.11640756 60
6.6980782 0.10990095 0.11693113 43
6.7418776 0.10826577 0.35337242 26
6.7792463 0.10768243 0.59318197 20
6.6241794 0.09827812 -0.34719676 48
6.6742835 0.096694529 -0.11651226 57
6.7004056 0.087713048 0.11696602 40
6.7402024 0.085880987 0.35326776 28
6.7676125 0.085048944 0.59213609 19
6.6184773 0.076243319 -0.34688276 44
6.6785665 0.074604109 -0.11658207 57
6.7006712 0.064325139 0.11696602 40
6.7304749 0.062258597 0.35274437 28
6.7778406 0.060334008 0.59300768 23
6.6207099 0.052002024 -0.34698743 42
6.6707873 0.051227901 -0.11644246 57
6.7028618 0.039775673 0.11700094 43
6.7266574 0.038746096 0.35253504 28
6.7720327 0.036640417 0.59248471 22
6.620851 0.028889352 -0.34698743 42
6.664927 0.027921649 -0.11633775 60
6.7009568 0.017540874 0.11696602 45
6.7387347 0.015290843 0.35316306 28
6.7621574 0.012983685 0.59161317 23
6.6229081 0.0069339187 -0.34709209 44
6.6729822 0.0046603554 -0.11647736 60
6.6929784 -0.0058407262 0.11682641 45
6.7407446 -0.0082353773 0.35326776 28
6.770133 -0.0094528953 0.59231043 23
6.7989311 -0.011866384 0.83480507 19
6.614903 -0.01616329 -0.34667343 44
6.6729579 -0.018634461 -0.11647736 60
6.698916 -0.029229719 0.11693113 43
6.7306886 -0.031717855 0.35274437 27
6.7700529 -0.03426661 0.59231043 21
6.7968636 -0.035588615 0.83456135 23
6.6108041 -0.040383607 -0.34646407 44
6.6768517 -0.041952446 -0.11654717 60
6.6967645 -0.053766221 0.11689622 45
6.7265429 -0.055179384 0.35253504 26
6.7738762 -0.057932366 0.59265906 21
6.8165369 -0.060676821 0.83699876 31
6.6086259 -0.063440211 -0.3463594 42
6.6426716 -0.064926498 -0.1159538 49
6.7005482 -0.076018572 0.11696602 45
6.7303028 -0.078705765 0.35274437 26
6.7616792 -0.081433296 0.59161317 25
6.6103764 -0.085380636 -0.34646407 44
6.6364055 -0.08803378 -0.11584908 46
6.6962438 -0.099348061 0.11689622 45
6.7339816 -0.10225908 0.35295373 26
6.7633648 -0.10388599 0.59178752 26
6.6140323 -0.10852018 -0.34667343 44
6.6380572 -0.11123212 -0.11588398 47
6.6838598 -0.12250184 0.11668679 46
6.737577 -0.12583902 0.35316306 28
6.7649531 -0.12753145 0.5919618 25
6.6156096 -0.13164653 -0.34677809 48
6.6456256 -0.1345645 -0.1160236 49
6.6893888 -0.14596298 0.11679151 49
6.7291098 -0.14917973 0.35274437 28
6.7664585 -0.15118927 0.59213609 26
6.6051264 -0.15450495 -0.34625471 44
6.6471143 -0.15780872 -0.1160585 51
6.6988339 -0.16956542 0.11696602 49
6.7245555 -0.17256533 0.35253504 28
6.7678809 -0.17485917 0.59231043 25
6.6065435 -0.17761391 -0.3463594 48
6.6385274 -0.18079276 -0.11591888 51
6.6902056 -0.19271736 0.11682641 48
6.7299008 -0.19621196 0.35284904 28
6.7672296 -0.19848241 0.59231043 25
6.6118722 -0.20085591 -0.34667343 51
6.6358571 -0.20390303 -0.11588398 54
6.6934896 -0.21619847 0.11689622 49
6.7291746 -0.21970251 0.35284904 28
6.7605214 -0.22190717 0.59178752 26
6.6191154 -0.22420487 -0.34709209 51
6.6411004 -0.22727041 -0.11598869 51
6.6847005 -0.23927568 0.1167566 48
6.7343965 -0.24223143 0.35316306 28
6.7616968 -0.24557674 0.5919618 25
6.6083131 -0.24693562 -0.34656873 48
6.6383119 -0.24921684 -0.1159538 49
6.6878662 -0.26159796 0.11682641 46
6.7255273 -0.26542234 0.35274437 27
6.7687612 -0.26949501 0.59265906 25
6.6054616 -0.268767 -0.34646407 51
6.6413975 -0.27255136 -0.1160236 54
6.6909089 -0.28511167 0.11689622 49
6.7165785 -0.28855428 0.35232571 28
6.771812 -0.29211131 0.59300768 23
6.6024885 -0.29173461 -0.3463594 19
6.6344128 -0.29546556 -0.11591888 51
6.6898727 -0.30846551 0.11689622 49
6.7235107 -0.31236854 0.35274437 29
6.7588096 -0.31519067 0.5919618 25
6.6333408 -0.31862223 -0.11591888 51
6.688755 -0.33181566 0.11689622 46
6.7263694 -0.33603537 0.35295373 29
6.7556787 -0.33868164 0.59178752 26
6.6361823 -0.34198079 -0.11598869 56
6.6795683 -0.35473755 0.1167566 48
6.7331328 -0.35993922 0.35337242 29
6.7564445 -0.36236799 0.5919618 23
6.6389413 -0.36536303 -0.1160585 56
6.682282 -0.37827745 0.11682641 48
6.7298417 -0.38332647 0.35326776 30
6.7630949 -0.38640475 0.59265906 25
6.6496034 -0.38923615 -0.11626793 56
6.6889057 -0.40208063 0.11696602 48
6.7184939 -0.40621296 0.35274437 28
6.7656822 -0.41025123 0.59300768 25
6.636229 -0.41170231 -0.1160585 51
6.6874614 -0.42542681 0.11696602 48
6.7210221 -0.4299174 0.35295373 28
6.7622209 -0.43373778 0.59283334 12
6.6247745 -0.43421069 -0.11588398 47
6.6859355 -0.44876778 0.11696602 49
6.7254586 -0.45377892 0.35326776 28
6.6803389 -0.47182164 0.11689622 46
6.7218409 -0.47711089 0.35316306 28
6.6786518 -0.49513742 0.11689622 46
6.7201347 -0.50057155 0.35316306 28
6.6808701 -0.51875687 0.11696602 45
6.710381 -0.52340496 0.35274437 27
6.6830044 -0.5423978 0.11703584 46
6.7224479 -0.54796124 0.35347709 28
6.6770854 -0.56538516 0.11696602 49
6.7145243 -0.57091594 0.35316306 28
6.6750712 -0.58868909 0.11696602 46
6.7244272 -0.59540755 0.35379109 27
6.7203193 -0.61869335 0.35368642 28
6.7081776 -0.64119768 0.35316306 28
6.7138486 -0.66539764 0.35358176 28
6.7214193 -0.68984884 0.35410511 28
6.7230668 -0.71255511 0.35431448 28
6.7145824 -0.7353664 0.35400045 27
6.7061529 -0.7569567 0.35368642 12
