# .PCD v0.7 - Point Cloud Data file format
VERSION 0.7
FIELDS x y z intensity
SIZE 4 4 4 4
TYPE F F F F
COUNT 1 1 1 1
WIDTH 149
HEIGHT 1
VIEWPOINT 0 0 0 1 0 0 0
POINTS 149
DATA ascii
7.7993321 0.6056028 -0.13654763 46
7.7973089 0.57944107 -0.13647781 50
7.7932997 0.55179781 -0.1363731 54
7.7951789 0.5245887 -0.1363731 49
7.8099613 0.51326209 0.13661744 31
7.7849889 0.49660939 -0.13616368 49
7.833744 0.48599747 0.1370014 34
7.7747798 0.46735439 -0.13595425 54
7.8154297 0.457479 0.13665235 45
7.7803569 0.44044018 -0.13602406 46
7.8109889 0.42986357 0.13654763 48
7.7837715 0.41474512 -0.13605896 44
7.8103747 0.40386108 0.13651273 45
7.7811775 0.38737121 -0.13598914 44
7.8117371 0.37659323 0.13651273 46
7.7784247 0.36137804 -0.13591935 48
7.8149405 0.35077399 0.13654763 43
7.8274884 0.34860334 0.41062793 11
7.7676511 0.33371443 -0.13570991 48
7.8101797 0.32188314 0.13644291 45
7.8127494 0.31925374 0.40979058 18
7.7748165 0.30547217 -0.13581464 50
7.7952695 0.29401353 0.13616368 46
7.8357701 0.29280594 0.41094196 25
7.7602763 0.28048798 -0.40696445 10
7.7738366 0.27826491 -0.13577972 48
7.8002448 0.26693961 0.13623348 46
7.8407373 0.26558536 0.41115132 33
7.7632041 0.25346097 -0.40706912 42
7.7767601 0.25118995 -0.13581464 50
7.8011293 0.23971169 0.13623348 49
7.8216529 0.23760967 0.4101046 31
7.7440777 0.22578405 -0.4060224 45
7.7755899 0.2239828 -0.13577972 48
7.8059173 0.212586 0.13630329 46
7.8224344 0.21030347 0.4101046 29
7.7567978 0.19905616 -0.40665042 52
7.7623315 0.19648699 -0.13553539 52
7.798615 0.18514876 0.13616368 48
7.8331046 0.18322825 0.41062793 30
7.7574458 0.17198031 -0.40665042 50
7.7649689 0.16943176 -0.1355703 54
7.7952151 0.15784237 0.13609387 46
7.8336697 0.1572533 0.41062793 30
7.74402 0.14463757 -0.40591773 52
7.7674875 0.14371982 -0.1356052 52
7.7956958 0.13199317 0.13609387 45
7.8221889 0.12971069 0.40999994 30
7.7424598 0.11892386 -0.40581304 50
7.7759399 0.11672704 -0.13574483 52
7.8041067 0.10488945 0.13623348 46
7.8185816 0.10371552 0.40979058 30
7.8652978 0.10159316 0.68818176 32
7.7408309 0.091878526 -0.40570837 52
7.7622871 0.090774611 -0.13550049 54
7.7964134 0.078926399 0.13609387 49
7.8188963 0.076424584 0.40979058 30
7.8496666 0.073985204 0.68678725 35
7.7430902 0.066223435 -0.40581304 55
7.7585578 0.063643746 -0.13543068 54
7.7926421 0.051682752 0.13602406 49
7.8231096 0.049157824 0.40999994 30
7.8418984 0.047903508 0.68608999 37
7.7532673 0.037889969 -0.4063364 52
7.7587328 0.036566272 -0.13543068 54
7.7887797 0.023110801 0.13595425 48
7.8272319 0.020489087 0.41020927 30
7.8460069 0.019172663 0.68643862 36
7.7453647 0.009464521 -0.40591773 52
7.7628136 0.0081273541 -0.13550049 54
7.7908115 -0.0054390132 0.13598914 49
7.8192668 -0.0068235984 0.40979058 30
7.850009 -0.0095905997 0.68678725 34
7.7413564 -0.01756461 -0.40570837 57
7.7667942 -0.018977897 -0.1355703 54
7.7927504 -0.031282272 0.13602406 49
7.8152003 -0.034100458 0.40958121 30
7.8499279 -0.036992189 0.68678725 33
7.7372608 -0.043213464 -0.40549901 60
7.7506833 -0.045994021 -0.13529105 54
7.798593 -0.058528878 0.13612877 49
7.8150339 -0.061380386 0.40958121 30
7.8397999 -0.062943295 0.68591571 35
7.7390609 -0.07023941 -0.40560371 62
7.7544751 -0.073086366 -0.13536087 58
7.7903428 -0.085662737 0.13598914 51
7.8187661 -0.088704899 0.40979058 30
7.8415246 -0.090331867 0.68608999 36
7.7427621 -0.097303532 -0.40581304 67
7.7561722 -0.10017991 -0.13539577 56
7.7859979 -0.11279766 0.13591935 49
7.8184295 -0.11463237 0.40979058 30
7.8391695 -0.11767344 0.68591571 35
7.7323904 -0.12416989 -0.40528968 62
7.7637949 -0.12602958 -0.13553539 56
7.7815819 -0.13854514 0.13584954 49
7.8179812 -0.14192308 0.40979058 30
7.8446875 -0.1451471 0.68643862 34
7.727942 -0.14973333 -0.40508035 70
7.7673059 -0.15320839 -0.1356052 56
7.7850494 -0.16579226 0.13591935 52
7.8114481 -0.1690824 0.40947655 31
7.8401785 -0.1710733 0.68608999 34
7.7193856 -0.17652535 -0.40466166 15
7.7567282 -0.18008834 -0.13543068 58
7.7884212 -0.19306523 0.13598914 52
7.8108106 -0.19634841 0.40947655 31
7.831532 -0.19960479 0.68539274 34
7.7520547 -0.20705649 -0.13536087 58
7.7916589 -0.22172369 0.13605896 51
7.8180237 -0.22520517 0.40989524 31
7.8287964 -0.22688302 0.68521845 35
7.7572398 -0.23564996 -0.13546558 56
7.7788453 -0.24853714 0.13584954 51
7.8151941 -0.25242931 0.40979058 30
7.8359218 -0.2544679 0.68591571 35
7.7523727 -0.26259094 -0.13539577 56
7.7819281 -0.27583054 0.13591935 49
7.8142653 -0.27970791 0.40979058 30
7.8489237 -0.28232017 0.68713588 21
7.7554059 -0.28979951 -0.13546558 56
7.7809176 -0.30299285 0.13591935 49
7.8072538 -0.30674785 0.40947655 31
7.748353 -0.31662425 -0.13536087 60
7.7878613 -0.32913136 0.13605896 49
7.8101845 -0.33280602 0.40968591 31
7.7392688 -0.34196386 -0.13522124 58
7.7826695 -0.35613126 0.13598914 49
7.8109708 -0.36015859 0.40979058 30
7.7340336 -0.36878639 -0.13515143 43
7.781312 -0.38465378 0.13598914 49
7.8135877 -0.38898343 0.40999994 30
7.7799215 -0.41181329 0.13598914 51
7.8081937 -0.41604304 0.40979058 30
7.7824306 -0.43919316 0.13605896 52
7.8007116 -0.44295648 0.40947655 31
7.782846 -0.46647581 0.13609387 48
7.8031049 -0.4704237 0.40968591 31
7.7791743 -0.49351358 0.13605896 49
7.8034086 -0.49778593 0.40979058 30
7.769424 -0.52013069 0.13591935 52
7.8095946 -0.52555835 0.41020927 30
7.7755394 -0.54781002 0.13605896 51
7.7998395 -0.55089015 0.40979058 30
7.7637081 -0.57285583 0.13588443 30
7.7978692 -0.57811326 0.40979058 30
7.7997861 -0.60563862 0.40999994 30
7.8016057 -0.63318437 0.41020927 30
7.8032126 -0.66211218 0.41041863 9
