# .PCD v0.7 - Point Cloud Data file format
VERSION 0.7
FIELDS x y z intensity
SIZE 4 4 4 4
TYPE F F F F
COUNT 1 1 1 1
WIDTH 69
HEIGHT 1
VIEWPOINT 0 0 0 1 0 0 0
POINTS 69
DATA ascii
10.93637 0.88760638 -0.19152272 19
10.931426 0.8488037 -0.19138309 37
10.988576 0.8358795 0.19236042 9
10.944293 0.81138229 -0.19155762 34
10.915142 0.77092266 -0.19099914 32
10.988159 0.75873649 0.19225572 28
10.923753 0.73321593 -0.19110386 31
11.000718 0.72102696 0.19243024 27
10.924251 0.69495589 -0.19106895 35
10.993188 0.68200612 0.19225572 34
10.922617 0.65657592 -0.19099914 40
10.995502 0.64362568 0.19225572 34
10.916858 0.61799514 -0.19085953 40
10.991796 0.60299462 0.192151 37
10.916951 0.57977545 -0.19082463 37
10.979756 0.56581771 0.19190666 34
10.920906 0.54176605 -0.19085953 40
10.981665 0.52748489 0.19190666 37
10.922643 0.50554502 -0.19085953 42
10.983353 0.49106768 0.19190666 34
11.037982 0.48964974 0.57904506 21
10.916348 0.46707511 -0.1907199 40
10.979086 0.4505648 0.19180195 37
11.057663 0.44992343 0.57998711 29
10.905998 0.42659503 -0.19051047 42
10.98259 0.41231 0.19183685 33
11.057171 0.41124511 0.57988244 27
10.911417 0.38866284 -0.19058028 42
10.971971 0.37356514 0.19162743 33
11.040573 0.37204278 0.57894039 30
10.916706 0.35069805 -0.19065009 42
10.969211 0.3351385 0.19155762 33
11.045797 0.33362466 0.57914978 29
10.917863 0.31259704 -0.19065009 42
10.982307 0.29717362 0.19176705 36
11.042902 0.29495597 0.57894039 30
10.91289 0.274331 -0.19054537 44
10.97728 0.25869736 0.19166233 33
11.03987 0.2563169 0.57873106 30
10.901785 0.23597884 -0.19033594 44
10.972118 0.22025461 0.19155762 36
11.04066 0.21970288 0.57873106 30
10.904509 0.19985956 -0.19037086 42
10.960792 0.1836697 0.1913482 36
11.04136 0.18116479 0.57873106 30
10.911138 0.1618806 -0.19047557 44
10.965365 0.14545843 0.19141799 34
11.037931 0.14257289 0.57852173 30
10.907638 0.12374956 -0.19040576 44
10.965807 0.10718357 0.19141799 36
11.026379 0.10392656 0.57789367 31
10.900004 0.085613519 -0.19026613 44
10.966114 0.068907417 0.19141799 37
11.034662 0.065481156 0.57831234 30
10.896237 0.047544532 -0.19019634 44
10.962288 0.030614026 0.1913482 33
11.030829 0.026955159 0.57810301 30
10.894338 0.0095098214 -0.19016142 42
10.954329 -0.0076475651 0.19120856 33
11.038846 -0.011559855 0.57852173 30
10.962234 -0.04591877 0.1913482 36
11.034742 -0.050074413 0.57831234 30
10.962008 -0.084183827 0.1913482 33
11.030506 -0.088560469 0.57810301 28
10.965646 -0.12249254 0.19141799 36
10.953155 -0.16059312 0.19120856 34
10.948528 -0.19875321 0.19113876 34
10.947768 -0.23696952 0.19113876 37
10.954919 -0.27347195 0.19127838 37
