# This PCD file was generated using the MATLAB® pcwrite function
# from Computer Vision Toolbox®.
# .PCD v.7 - Point Cloud Data file format
VERSION .7
FIELDS x y z
SIZE 4 4 4
TYPE F F F
COUNT 1 1 1
WIDTH 1644
HEIGHT 1
VIEWPOINT 0 0 0 1 0 0 0
POINTS 1644
DATA ascii
8.125171 1.333018 -1.900918
8.095825 1.356093 -1.895105
8.100672 1.384843 -1.897316
8.108656 1.414205 -1.900286
8.107212 1.441979 -1.901070
8.093748 1.467596 -1.899056
8.077334 1.492609 -1.896368
8.083867 1.521863 -1.899089
8.082869 1.549754 -1.900065
8.072251 1.575796 -1.898800
8.084218 1.606289 -1.902871
8.068555 1.631316 -1.900461
8.053967 1.656493 -1.898323
8.064907 1.686946 -1.902224
8.055479 1.713184 -1.901344
8.046946 1.739590 -1.900696
8.033991 1.765005 -1.899023
8.043277 1.795336 -1.902630
8.025867 1.819721 -1.899944
8.023732 1.847543 -1.900895
8.009531 1.872574 -1.899007
8.009963 1.901021 -1.900610
8.004706 1.928146 -1.900886
7.991416 1.953316 -1.899275
7.982326 1.979480 -1.898681
7.982593 2.007980 -1.900335
7.964659 2.031887 -1.897677
7.973678 2.062686 -1.901463
7.969198 2.090060 -1.902055
7.957560 2.115548 -1.900959
7.943679 2.140399 -1.899347
7.936493 2.167030 -1.899356
7.933764 2.194895 -1.900453
7.928053 2.221957 -1.900859
7.905642 2.244292 -1.897279
7.892773 2.269261 -1.896006
7.901771 2.300560 -1.900010
7.888549 2.325429 -1.898694
7.872006 2.349268 -1.896598
7.885273 2.382049 -1.901708
7.871261 2.406644 -1.900264
7.862240 2.432740 -1.900044
7.849594 2.457696 -1.898969
7.857681 2.489186 -1.902934
7.849476 2.515577 -1.902978
7.832170 2.539019 -1.900836
7.809554 2.560655 -1.897420
7.809539 2.589681 -1.899516
7.795162 2.613955 -1.898139
7.800189 2.644767 -1.901512
7.782289 2.667824 -1.899319
7.771672 2.693336 -1.898920
7.771935 2.722649 -1.901204
7.768384 2.750682 -1.902581
7.739340 2.769635 -1.897732
7.736027 2.797744 -1.899209
7.723855 2.822661 -1.898533
7.712945 2.848024 -1.898188
7.711345 2.876850 -1.900157
7.706689 2.904585 -1.901399
7.691858 2.928486 -1.900152
7.690508 2.957532 -1.902257
7.676379 2.981680 -1.901224
7.657013 3.003743 -1.898912
7.657894 3.033754 -1.901642
7.628379 3.051692 -1.896843
7.621300 3.078542 -1.897639
7.625475 3.110007 -1.901264
7.601070 3.129818 -1.897784
7.609695 3.163251 -1.902575
7.590211 3.185040 -1.900363
7.573385 3.207885 -1.898833
7.572015 3.237289 -1.901200
7.551276 3.258412 -1.898725
7.539567 3.283388 -1.898538
7.528121 3.308475 -1.898439
7.522698 3.336230 -1.899881
7.504501 3.358315 -1.898119
7.504565 3.388589 -1.900998
7.487648 3.411220 -1.899599
7.481349 3.438686 -1.900915
7.466765 3.462354 -1.900149
7.461329 3.490276 -1.901733
7.451900 3.516365 -1.902323
7.421885 3.532675 -1.897674
7.416926 3.560865 -1.899448
7.412886 3.589558 -1.901485
7.406055 3.616954 -1.902833
7.382991 3.636398 -1.900029
7.359395 3.655487 -1.897100
7.355679 3.684440 -1.899316
7.344863 3.709879 -1.899724
7.324415 3.730426 -1.897660
7.326155 3.762300 -1.901368
7.313772 3.786983 -1.901439
7.300067 3.810979 -1.901187
7.278553 3.830856 -1.898918
7.276126 3.860788 -1.901652
7.260680 3.883845 -1.901008
7.242049 3.905164 -1.899547
7.233693 3.932021 -1.900802
7.223987 3.958180 -1.901729
7.206235 3.979925 -1.900557
7.195745 4.005676 -1.901322
7.183303 4.030356 -1.901595
7.167922 4.053384 -1.901110
7.142529 4.070690 -1.897984
7.139153 4.100539 -1.900730
7.125619 4.124599 -1.900798
7.111082 4.148077 -1.900619
7.083924 4.164130 -1.897081
7.071496 4.188790 -1.897504
7.067068 4.218239 -1.900100
7.059385 4.245820 -1.901851
7.037823 4.265048 -1.899884
7.028090 4.291433 -1.901130
7.015404 4.316045 -1.901602
7.000195 4.339109 -1.901412
6.977861 4.357717 -1.899304
6.966198 4.382967 -1.900118
6.942755 4.400779 -1.897738
6.936286 4.429348 -1.900018
6.922093 4.453028 -1.900210
6.905009 4.474841 -1.899628
6.885614 4.495125 -1.898428
6.874032 4.520506 -1.899403
6.855633 4.541405 -1.898515
6.861656 4.578570 -1.904423
6.819418 4.583505 -1.896955
6.808883 4.609641 -1.898313
6.805275 4.640549 -1.901634
6.782238 4.658230 -1.899551
6.766127 4.680628 -1.899423
6.750142 4.703111 -1.899352
6.732711 4.724576 -1.898893
6.723574 4.751888 -1.900799
6.704618 4.772279 -1.899953
6.691070 4.796516 -1.900660
6.667977 4.813889 -1.898675
6.659033 4.841477 -1.900740
6.622141 4.848677 -1.894839
6.625464 4.885318 -1.900466
6.604770 4.904328 -1.899236
6.599258 4.934647 -1.902398
6.569798 4.947048 -1.898676
6.552246 4.968343 -1.898407
6.545073 4.997554 -1.901173
6.526393 5.018019 -1.900623
6.510802 5.040857 -1.900994
6.490933 5.060372 -1.900136
6.476285 5.083955 -1.900827
6.446723 5.095775 -1.897154
6.451820 5.135046 -1.903711
6.414770 5.140783 -1.897853
6.407811 5.170583 -1.900913
6.383252 5.186199 -1.898775
6.371169 5.211942 -1.900368
6.357368 5.236329 -1.901477
6.341733 5.259238 -1.902065
6.330267 5.285650 -1.903930
6.292102 5.289688 -1.897775
6.282618 5.317768 -1.900281
6.259933 5.334695 -1.898819
6.245889 5.358980 -1.899999
6.235502 5.386471 -1.902322
6.206929 5.398233 -1.899116
6.189876 5.419960 -1.899448
6.177508 5.445831 -1.901245
6.151418 5.459593 -1.898838
6.144339 5.490248 -1.902325
6.125078 5.510082 -1.902071
6.091236 5.516700 -1.897294
6.085225 5.548508 -1.901206
6.063278 5.565840 -1.900169
6.040408 5.582281 -1.898857
6.030308 5.610549 -1.901584
6.016346 5.635311 -1.903129
5.991163 5.649552 -1.901144
5.970894 5.668380 -1.900732
5.943162 5.680058 -1.897956
5.928657 5.704352 -1.899421
5.904871 5.719715 -1.897933
5.884927 5.738766 -1.897697
5.882668 5.775169 -1.903202
5.850722 5.782457 -1.899128
5.851411 5.822049 -1.905677
5.811657 5.821400 -1.899076
5.800466 5.849282 -1.901817
5.784874 5.872812 -1.903151
5.758099 5.884966 -1.900822
5.730873 5.896562 -1.898351
5.717056 5.921942 -1.900340
5.696610 5.940495 -1.900154
5.678607 5.961605 -1.900805
5.661841 5.984050 -1.901899
5.636189 5.997087 -1.900025
5.618152 6.018201 -1.900736
5.599804 6.039011 -1.901368
5.579533 6.057761 -1.901371
5.564422 6.082152 -1.903160
5.538991 6.095264 -1.901441
5.524906 6.120872 -1.903640
5.487432 6.120488 -1.897788
5.464677 6.136378 -1.897023
5.456644 6.168878 -1.901404
5.432937 6.183732 -1.900357
5.404299 6.192889 -1.897592
5.399428 6.229344 -1.903205
5.375826 6.244294 -1.902255
5.350396 6.257062 -1.900669
5.327138 6.272318 -1.899867
5.299772 6.282667 -1.897609
5.283349 6.305976 -1.899288
5.261311 6.322615 -1.898975
5.247022 6.348615 -1.901490
5.227724 6.368629 -1.902224
5.187323 6.362792 -1.895275
5.176709 6.393424 -1.899218
5.167843 6.426412 -1.903860
5.129076 6.422177 -1.897500
5.113302 6.446634 -1.899650
5.093228 6.465734 -1.900236
5.078287 6.491423 -1.902771
5.039014 6.485913 -1.896193
5.029457 6.518606 -1.900810
5.004990 6.532061 -1.899830
4.975748 6.539195 -1.897042
4.960752 6.565048 -1.899706
4.945525 6.590721 -1.902326
4.915524 6.596696 -1.899283
4.904416 6.628056 -1.903567
4.876915 6.637315 -1.901519
4.847031 6.643209 -1.898541
4.827112 6.662711 -1.899479
4.803842 6.677601 -1.899121
4.780956 6.693011 -1.898934
4.763770 6.716450 -1.901042
4.734523 6.722869 -1.898355
4.709750 6.735549 -1.897466
4.701797 6.772415 -1.903400
4.666186 6.769458 -1.898161
4.645865 6.788574 -1.899143
4.627711 6.810931 -1.901046
4.603908 6.825014 -1.900658
4.572586 6.827848 -1.897167
4.557487 6.854903 -1.900428
4.532064 6.866488 -1.899416
4.506045 6.877109 -1.898164
4.487964 6.899867 -1.900282
4.456095 6.901387 -1.896575
4.436852 6.922405 -1.898252
4.419984 6.947250 -1.900991
4.394486 6.958577 -1.900048
4.368951 6.969795 -1.899101
4.345692 6.984620 -1.899159
4.320970 6.997079 -1.898597
4.300627 7.016652 -1.899985
4.280948 7.037394 -1.901704
4.259723 7.055674 -1.902774
4.227039 7.054888 -1.898729
4.202480 7.067539 -1.898331
4.181839 7.086807 -1.899730
4.161635 7.106903 -1.901366
4.132226 7.111252 -1.898812
4.110050 7.127996 -1.899593
4.087252 7.143701 -1.900115
4.062843 7.156599 -1.899912
4.035651 7.164546 -1.898419
4.014537 7.183278 -1.899805
3.994602 7.204223 -1.901792
3.973926 7.223938 -1.903468
3.946842 7.232016 -1.902099
3.915602 7.232334 -1.898719
3.892644 7.247865 -1.899359
3.868392 7.261010 -1.899395
3.853102 7.291114 -1.903879
3.818804 7.285237 -1.898991
3.801126 7.311020 -1.902379
3.772643 7.316064 -1.900389
3.743604 7.319896 -1.898113
3.718578 7.331495 -1.897877
3.695445 7.346841 -1.898632
3.674621 7.366867 -1.900613
3.648172 7.375651 -1.899713
3.620718 7.382328 -1.898295
3.592415 7.387165 -1.896431
3.571527 7.407256 -1.898504
3.550837 7.427903 -1.900733
3.522093 7.431706 -1.898674
3.504395 7.458880 -1.902604
3.471460 7.453611 -1.898281
3.448247 7.469102 -1.899271
3.431863 7.499584 -1.904085
3.398434 7.492826 -1.899466
3.374664 7.507228 -1.900238
3.346126 7.510983 -1.898338
3.325694 7.532963 -1.901064
3.297451 7.537289 -1.899355
3.274514 7.553728 -1.900720
3.249632 7.565742 -1.900991
3.224492 7.577169 -1.901135
3.193930 7.575751 -1.898082
3.175010 7.601974 -1.901974
3.150036 7.613863 -1.902295
3.118403 7.609528 -1.898589
3.100755 7.639360 -1.903428
3.070642 7.638562 -1.900653
3.048017 7.656357 -1.902528
3.014916 7.647730 -1.897861
2.994715 7.671776 -1.901326
2.969077 7.682034 -1.901391
2.941397 7.686963 -1.900159
2.916575 7.699335 -1.900789
2.889177 7.704890 -1.899759
2.864975 7.718974 -1.900852
2.839945 7.730894 -1.901432
2.810326 7.730241 -1.898943
2.783587 7.737384 -1.898394
2.760784 7.755535 -1.900566
2.731792 7.756304 -1.898499
2.709647 7.776542 -1.901219
2.680026 7.775335 -1.898716
2.656094 7.790590 -1.900256
2.633162 7.808952 -1.902571
2.606436 7.816150 -1.902184
2.578242 7.818860 -1.900729
2.551788 7.826772 -1.900562
2.522767 7.826706 -1.898482
2.502167 7.852870 -1.902783
2.471410 7.847201 -1.899390
2.449781 7.870528 -1.903038
2.418453 7.862682 -1.899169
2.391624 7.869254 -1.898809
2.366177 7.880395 -1.899573
2.338402 7.883764 -1.898484
2.310474 7.886501 -1.897267
2.284916 7.897304 -1.898012
2.260716 7.912940 -1.899938
2.232504 7.914557 -1.898518
2.206531 7.924067 -1.899014
2.181862 7.938374 -1.900679
2.154210 7.941872 -1.899776
2.127882 7.950215 -1.900055
2.100404 7.954233 -1.899322
2.072729 7.957415 -1.898411
2.044901 7.959897 -1.897357
2.022080 7.982017 -1.901003
1.993136 7.980062 -1.898935
1.968139 7.993888 -1.900644
1.942240 8.004210 -1.901539
1.915981 8.013137 -1.902123
1.889186 8.019866 -1.902206
1.858098 8.008104 -1.897928
1.832867 8.021417 -1.899616
1.805723 8.026455 -1.899365
1.780586 8.040520 -1.901270
1.753316 8.045063 -1.900943
1.725982 8.049257 -1.900556
1.698276 8.051642 -1.899764
1.670591 8.054013 -1.898991
1.644801 8.065567 -1.900405
1.617093 8.067761 -1.899634
1.590847 8.077261 -1.900604
1.564859 8.088251 -1.901945
1.537149 8.090382 -1.901223
1.510317 8.097114 -1.901604
1.484054 8.107011 -1.902749
1.452982 8.090322 -1.897678
1.426624 8.099554 -1.898711
1.399452 8.104248 -1.898701
1.374593 8.122606 -1.901912
1.347214 8.126337 -1.901717
1.319475 8.127820 -1.901018
1.293805 8.142193 -1.903354
1.266394 8.145818 -1.903198
1.237911 8.142359 -1.901410
1.207386 8.124804 -1.896354
1.181713 8.139650 -1.898884
1.156225 8.156333 -1.901861
1.129208 8.162597 -1.902428
1.102951 8.174613 -1.904356
1.073200 8.160497 -1.900218
1.045938 8.164864 -1.900408
1.017808 8.162323 -1.899012
0.990912 8.169616 -1.899925
0.963213 8.170329 -1.899329
0.934793 8.164596 -1.897257
0.909805 8.189207 -1.902257
0.880322 8.173448 -1.897899
0.853647 8.183394 -1.899534
0.825318 8.177417 -1.897493
0.798199 8.183248 -1.898215
0.770424 8.182336 -1.897393
0.743742 8.193202 -1.899324
0.717376 8.208329 -1.902263
0.689158 8.202449 -1.900354
0.661533 8.203222 -1.900008
0.634807 8.215509 -1.902351
0.606368 8.205534 -1.899559
0.578379 8.200807 -1.898005
0.551070 8.205523 -1.898659
0.523766 8.210637 -1.899425
0.496502 8.216773 -1.900449
0.469365 8.225670 -1.902132
0.440872 8.210216 -1.898206
0.414149 8.227685 -1.901913
0.386185 8.221030 -1.900064
0.359021 8.231475 -1.902190
0.330958 8.221159 -1.899539
0.303345 8.220953 -1.899245
0.275847 8.223899 -1.899701
0.248236 8.223580 -1.899425
0.220698 8.225696 -1.899732
0.193260 8.232448 -1.901131
0.165667 8.233578 -1.901253
0.138035 8.232558 -1.900900
0.110284 8.221897 -1.898342
0.082849 8.235360 -1.901376
0.055201 8.230284 -1.900151
0.027601 8.228826 -1.899782
0.000011 8.222982 -1.898422
-0.027566 8.225108 -1.898924
-0.055185 8.231105 -1.900340
-0.082819 8.234557 -1.901191
-0.110433 8.234676 -1.901293
-0.137857 8.223252 -1.898751
-0.165520 8.227316 -1.899807
-0.193199 8.230797 -1.900750
-0.220723 8.227463 -1.900140
-0.248001 8.216523 -1.897795
-0.276039 8.230300 -1.901180
-0.303324 8.220957 -1.899246
-0.330638 8.213747 -1.897826
-0.358376 8.217208 -1.898892
-0.386039 8.218382 -1.899452
-0.413436 8.213948 -1.898737
-0.441443 8.221271 -1.900761
-0.467996 8.202055 -1.896671
-0.496505 8.217179 -1.900542
-0.524470 8.222019 -1.902058
-0.551134 8.206800 -1.898954
-0.579662 8.219313 -1.902288
-0.606465 8.207148 -1.899933
-0.634266 8.208784 -1.900793
-0.662173 8.211427 -1.901908
-0.688772 8.198113 -1.899349
-0.716014 8.192997 -1.898709
-0.744179 8.198254 -1.900495
-0.770258 8.180799 -1.897036
-0.799230 8.194038 -1.900717
-0.826140 8.185779 -1.899433
-0.852500 8.172602 -1.897028
-0.880489 8.175200 -1.898306
-0.908508 8.177730 -1.899590
-0.934742 8.164337 -1.897196
-0.962857 8.167493 -1.898669
-0.991059 8.171005 -1.900247
-1.018173 8.165421 -1.899732
-1.045814 8.164069 -1.900223
-1.072638 8.156388 -1.899261
-1.098589 8.142445 -1.896861
-1.129326 8.163610 -1.902663
-1.154934 8.147381 -1.899773
-1.184311 8.157703 -1.903095
-1.209791 8.141135 -1.900165
-1.236366 8.132339 -1.899069
-1.266513 8.146725 -1.903409
-1.291003 8.124700 -1.899264
-1.319663 8.129117 -1.901320
-1.345897 8.118531 -1.899889
-1.373716 8.117557 -1.900728
-1.403409 8.127289 -1.904098
-1.427386 8.104004 -1.899753
-1.455610 8.105079 -1.901139
-1.480632 8.088438 -1.898389
-1.509728 8.094073 -1.900889
-1.539768 8.104285 -1.904489
-1.564103 8.084455 -1.901051
-1.592130 8.083891 -1.902163
-1.619384 8.079303 -1.902350
-1.645091 8.067098 -1.900764
-1.672831 8.064917 -1.901561
-1.698032 8.050590 -1.899515
-1.723480 8.037694 -1.897825
-1.751672 8.037621 -1.899184
-1.777553 8.026924 -1.898054
-1.806514 8.030069 -1.900219
-1.831723 8.016508 -1.898453
-1.858479 8.009841 -1.898339
-1.886595 8.008959 -1.899618
-1.911944 7.996346 -1.898136
-1.944201 8.012381 -1.903479
-1.970069 8.001818 -1.902528
-1.995690 7.990376 -1.901388
-2.025180 7.994343 -1.903937
-2.048087 7.972384 -1.900332
-2.073861 7.961849 -1.899468
-2.102352 7.961696 -1.901102
-2.129152 7.955042 -1.901207
-2.152053 7.934003 -1.897893
-2.178683 7.926889 -1.897928
-2.212679 7.946228 -1.904324
-2.234175 7.920563 -1.899958
-2.258805 7.906330 -1.898349
-2.290591 7.916998 -1.902744
-2.314171 7.899199 -1.900320
-2.341495 7.894270 -1.901013
-2.366899 7.882876 -1.900169
-2.392645 7.872688 -1.899636
-2.420855 7.870563 -1.901072
-2.442666 7.847740 -1.897526
-2.471229 7.846698 -1.899267
-2.493067 7.824382 -1.895878
-2.527651 7.841929 -1.902173
-2.549416 7.819567 -1.898811
-2.577939 7.818011 -1.900522
-2.599013 7.793957 -1.896782
-2.632882 7.808189 -1.902383
-2.655384 7.788575 -1.899763
-2.677856 7.769106 -1.897193
-2.709453 7.776053 -1.901097
-2.734398 7.763768 -1.900324
-2.761787 7.758417 -1.901271
-2.785360 7.742375 -1.899617
-2.807807 7.723377 -1.897255
-2.836264 7.720936 -1.898981
-2.867884 7.726874 -1.902796
-2.895179 7.720959 -1.903719
-2.915135 7.695595 -1.899864
-2.938726 7.680042 -1.898446
-2.967078 7.676923 -1.900124
-2.995726 7.674426 -1.901981
-3.018831 7.657719 -1.900338
-3.043260 7.644469 -1.899572
-3.071139 7.639858 -1.900974
-3.092665 7.619486 -1.898474
-3.126249 7.628729 -1.903378
-3.149059 7.611557 -1.901717
-3.170679 7.591662 -1.899392
-3.197286 7.583766 -1.900088
-3.229197 7.588282 -1.903921
-3.248932 7.564167 -1.900593
-3.280110 7.566692 -1.903980
-3.296526 7.535228 -1.898833
-3.318221 7.516090 -1.896804
-3.356908 7.535239 -1.904466
-3.369376 7.495518 -1.897271
-3.393042 7.480991 -1.896463
-3.429041 7.493469 -1.902530
-3.452661 7.478714 -1.901712
-3.468156 7.446568 -1.896485
-3.499076 7.447612 -1.899727
-3.523585 7.434905 -1.899489
-3.545949 7.417727 -1.898127
-3.571563 7.407381 -1.898533
-3.598733 7.400208 -1.899776
-3.620419 7.381767 -1.898148
-3.645627 7.370555 -1.898398
-3.669686 7.357022 -1.898070
-3.694822 7.345652 -1.898322
-3.717596 7.329607 -1.897386
-3.746273 7.325162 -1.899476
-3.772058 7.314978 -1.900104
-3.796158 7.301512 -1.899902
-3.822409 7.292161 -1.900793
-3.849891 7.285084 -1.902302
-3.868634 7.261508 -1.899522
-3.901522 7.264442 -1.903701
-3.914964 7.231201 -1.898419
-3.942898 7.224833 -1.900207
-3.967570 7.212430 -1.900433
-3.986676 7.189973 -1.898027
-4.018242 7.189954 -1.901568
-4.044607 7.180490 -1.902641
-4.058311 7.148660 -1.897801
-4.082770 7.135912 -1.898041
-4.110890 7.129497 -1.899990
-4.135683 7.117244 -1.900409
-4.157348 7.099624 -1.899415
-4.182635 7.088199 -1.900100
-4.206791 7.074832 -1.900287
-4.225865 7.052972 -1.898210
-4.252854 7.044339 -1.899714
-4.272419 7.023417 -1.897924
-4.308308 7.029225 -1.903386
-4.327341 7.007436 -1.901404
-4.347703 6.987894 -1.900046
-4.370306 6.971998 -1.899698
-4.394148 6.958083 -1.899910
-4.410802 6.932858 -1.897050
-4.439640 6.926795 -1.899453
-4.468997 6.921410 -1.902074
-4.488225 6.900308 -1.900400
-4.511439 6.885380 -1.900444
-4.537098 6.874153 -1.901533
-4.553385 6.848772 -1.898725
-4.574737 6.831100 -1.898067
-4.601482 6.821456 -1.899664
-4.616482 6.794444 -1.896441
-4.653542 6.799831 -1.902289
-4.676258 6.784108 -1.902266
-4.692703 6.759353 -1.899725
-4.711720 6.738406 -1.898267
-4.736081 6.725119 -1.898987
-4.759705 6.710756 -1.899427
-4.782770 6.695589 -1.899662
-4.811908 6.688850 -1.902317
-4.826171 6.661450 -1.899116
-4.851209 6.648973 -1.900185
-4.868615 6.626057 -1.898290
-4.896703 6.617669 -1.900580
-4.924197 6.608372 -1.902641
-4.939787 6.583111 -1.900126
-4.959293 6.563153 -1.899154
-4.986175 6.552934 -1.901024
-5.005290 6.532489 -1.899950
-5.032597 6.522713 -1.902004
-5.048388 6.498015 -1.899727
-5.076352 6.488985 -1.902052
-5.096228 6.469577 -1.901361
-5.110703 6.443393 -1.898691
-5.137527 6.432793 -1.900633
-5.152943 6.407918 -1.898377
-5.173870 6.389952 -1.898183
-5.208996 6.389411 -1.903200
-5.231032 6.372694 -1.903434
-5.239803 6.339915 -1.898880
-5.259346 6.320287 -1.898272
-5.290846 6.314959 -1.901989
-5.301467 6.284711 -1.898221
-5.338660 6.285917 -1.903982
-5.351762 6.258693 -1.901160
-5.371738 6.239578 -1.900814
-5.388423 6.216681 -1.899332
-5.420602 6.211605 -1.903322
-5.440840 6.192760 -1.903127
-5.452397 6.164110 -1.899930
-5.482555 6.156487 -1.903235
-5.493255 6.127016 -1.899808
-5.511028 6.105530 -1.898864
-5.533071 6.088782 -1.899414
-5.560697 6.078113 -1.901892
-5.574624 6.052464 -1.899704
-5.590125 6.028605 -1.898087
-5.618572 6.018683 -1.900884
-5.634776 5.995615 -1.899554
-5.652749 5.974472 -1.898849
-5.673712 5.956497 -1.899172
-5.697277 5.941222 -1.900381
-5.716630 5.921533 -1.900204
-5.743311 5.909390 -1.902476
-5.755905 5.882756 -1.900103
-5.777595 5.865453 -1.900761
-5.798248 5.847077 -1.901095
-5.810290 5.820061 -1.898635
-5.828630 5.799413 -1.898263
-5.853591 5.785323 -1.900065
-5.881347 5.773903 -1.902780
-5.895556 5.749162 -1.901130
-5.916286 5.730803 -1.901608
-5.925378 5.701227 -1.898375
-5.943854 5.680750 -1.898182
-5.967178 5.664882 -1.899554
-5.976068 5.635347 -1.896358
-6.012137 5.631398 -1.901802
-6.029384 5.609720 -1.901298
-6.053770 5.594659 -1.903062
-6.068361 5.570537 -1.901767
-6.080314 5.544059 -1.899676
-6.098396 5.523214 -1.899529
-6.117513 5.503306 -1.899726
-6.137997 5.484611 -1.900366
-6.157454 5.464980 -1.900706
-6.172114 5.441105 -1.899589
-6.177242 5.408927 -1.895576
-6.206490 5.397881 -1.898986
-6.228503 5.380454 -1.900191
-6.256424 5.368049 -1.903208
-6.264268 5.338418 -1.900139
-6.286164 5.320798 -1.901358
-6.305839 5.301265 -1.901922
-6.313858 5.271977 -1.898999
-6.334401 5.253186 -1.899870
-6.360861 5.239234 -1.902527
-6.369342 5.210475 -1.899827
-6.380833 5.184262 -1.898059
-6.398171 5.162833 -1.898057
-6.415548 5.141434 -1.898088
-6.435873 5.122381 -1.899009
-6.456647 5.103648 -1.900079
-6.473374 5.081698 -1.899977
-6.496224 5.064525 -1.901689
-6.498428 5.031303 -1.897385
-6.521474 5.014265 -1.899195
-6.539492 4.993320 -1.899556
-6.565425 4.978364 -1.902229
-6.584803 4.958374 -1.903016
-6.595424 4.931807 -1.901296
-6.610937 4.908934 -1.901013
-6.636753 4.893669 -1.903708
-6.630363 4.854724 -1.897195
-6.651155 4.835777 -1.898495
-6.682992 4.824756 -1.902954
-6.696383 4.800352 -1.902173
-6.708075 4.774766 -1.900936
-6.723258 4.751691 -1.900714
-6.742393 4.731398 -1.901628
-6.739160 4.695486 -1.896265
-6.771998 4.684716 -1.901075
-6.782315 4.658309 -1.899576
-6.803453 4.639333 -1.901129
-6.810678 4.610882 -1.898817
-6.833138 4.592752 -1.900775
-6.841526 4.565164 -1.898840
-6.849720 4.537515 -1.896881
-6.884764 4.527589 -1.902371
-6.892791 4.499836 -1.900410
-6.901771 4.472768 -1.898740
-6.926785 4.456072 -1.901501
-6.946166 4.435683 -1.902728
-6.963110 4.413707 -1.903305
-6.954909 4.375891 -1.897042
-6.984841 4.362103 -1.901207
-6.999703 4.338830 -1.901282
-7.019824 4.318790 -1.902803
-7.020380 4.286751 -1.899047
-7.043671 4.268618 -1.901465
-7.047523 4.238710 -1.898658
-7.064954 4.217003 -1.899534
-7.077149 4.192164 -1.899023
-7.097112 4.171908 -1.900616
-7.111260 4.148206 -1.900670
-7.123650 4.123484 -1.900275
-7.129905 4.095252 -1.898270
-7.160968 4.081225 -1.902887
-7.161357 4.049697 -1.899372
-7.174541 4.025465 -1.899278
-7.193471 4.004435 -1.900724
-7.207934 3.980889 -1.901008
-7.222364 3.957315 -1.901304
-7.238059 3.934419 -1.901952
-7.232252 3.899906 -1.896980
-7.267140 3.887326 -1.902701
-7.268830 3.856941 -1.899747
-7.281114 3.832229 -1.899589
-7.302769 3.812414 -1.901893
-7.304163 3.782032 -1.898943
-7.316185 3.757204 -1.898783
-7.338410 3.737578 -1.901288
-7.356975 3.716021 -1.902859
-7.357231 3.685242 -1.899719
-7.369854 3.660707 -1.899799
-7.390672 3.640206 -1.902008
-7.398650 3.613361 -1.900933
-7.397963 3.582356 -1.897660
-7.408686 3.556933 -1.897340
-7.427196 3.535227 -1.899035
-7.444687 3.512985 -1.900484
-7.458041 3.488762 -1.900897
-7.458389 3.458494 -1.898019
-7.471290 3.434087 -1.898362
-7.486034 3.410508 -1.899192
-7.512005 3.391973 -1.902885
-7.531460 3.370403 -1.904940
-7.526368 3.337881 -1.900810
-7.538061 3.312867 -1.900948
-7.547917 3.287049 -1.900643
-7.556737 3.260792 -1.900100
-7.559097 3.231790 -1.897959
-7.570669 3.206758 -1.898154
-7.583151 3.182101 -1.898598
-7.599137 3.158886 -1.899938
-7.606391 3.132033 -1.899115
-7.633021 3.113108 -1.903147
-7.623380 3.079405 -1.898158
-7.647439 3.059340 -1.901584
-7.642828 3.027809 -1.897903
-7.653208 3.002274 -1.897970
-7.668469 2.978631 -1.899267
-7.670548 2.949879 -1.897322
-7.694615 2.929559 -1.900835
-7.693108 2.899490 -1.898050
-7.713735 2.877765 -1.900748
-7.713878 2.848392 -1.898419
-7.736860 2.827437 -1.901732
-7.737956 2.798465 -1.899684
-7.742532 2.770800 -1.898516
-7.752998 2.745257 -1.898815
-7.759591 2.718348 -1.898187
-7.770508 2.692956 -1.898638
-7.794621 2.672074 -1.902330
-7.786579 2.640176 -1.898196
-7.809524 2.618794 -1.901639
-7.815319 2.591620 -1.900923
-7.827202 2.566464 -1.901710
-7.826169 2.537097 -1.899381
-7.847516 2.514972 -1.902505
-7.834808 2.481963 -1.897396
-7.859616 2.460857 -1.901395
-7.860034 2.432081 -1.899513
-7.873715 2.407417 -1.900858
-7.860288 2.374523 -1.895683
-7.879553 2.351543 -1.898417
-7.895711 2.327563 -1.900420
-7.901968 2.300639 -1.900058
-7.899948 2.271347 -1.897731
-7.927378 2.250485 -1.902497
-7.925273 2.221201 -1.900194
-7.933051 2.194721 -1.900283
-7.943548 2.168979 -1.901045
-7.946874 2.141283 -1.900112
-7.951324 2.113912 -1.899471
-7.974753 2.091539 -1.903382
-7.966556 2.060866 -1.899766
-7.979570 2.035713 -1.901231
-7.971381 2.005182 -1.897667
-8.009956 1.986354 -1.905254
-7.980140 1.950582 -1.896596
-8.006118 1.928509 -1.901222
-8.016282 1.902543 -1.902111
-8.021569 1.875411 -1.901863
-8.009887 1.844378 -1.897616
-8.023249 1.819150 -1.899326
-8.036353 1.793813 -1.900994
-8.050970 1.768758 -1.903038
-8.045302 1.739257 -1.900309
-8.049015 1.711832 -1.899819
-8.048054 1.683443 -1.898250
-8.054914 1.656710 -1.898547
-8.060476 1.629705 -1.898559
-8.072883 1.604059 -1.900204
-8.062201 1.573857 -1.896437
-8.082912 1.549785 -1.900076
-8.070615 1.519391 -1.895977
-8.077530 1.492668 -1.896415
-8.097198 1.468244 -1.899866
-8.108690 1.442264 -1.901417
-8.109825 1.414431 -1.900561
-8.124762 1.388983 -1.902959
-8.115882 1.359475 -1.899801
-8.135111 1.334671 -1.903244
-8.120569 1.304340 -1.898808
-8.135571 1.278784 -1.901303
-8.130836 1.250120 -1.899206
-8.130088 1.222116 -1.898064
-8.146817 1.196713 -1.901022
-8.158938 1.170561 -1.902924
-8.157049 1.142391 -1.901579
-8.145349 1.112920 -1.897971
-8.153750 1.086232 -1.899069
-8.177411 1.061493 -1.903741
-8.158265 1.031205 -1.898468
-8.166021 1.004381 -1.899478
-8.178405 0.978080 -1.901585
-8.165679 0.948799 -1.897876
-8.168897 0.921425 -1.897895
-8.188303 0.895822 -1.901695
-8.186372 0.867844 -1.900560
-8.177970 0.839236 -1.897946
-8.190686 0.812799 -1.900254
-8.184075 0.784443 -1.898099
-8.191211 0.757419 -1.899154
-8.188486 0.729487 -1.897945
-8.190523 0.701997 -1.897861
-8.219550 0.676732 -1.904051
-8.207224 0.648021 -1.900681
-8.191257 0.619132 -1.896492
-8.217106 0.593385 -1.902005
-8.214009 0.565484 -1.900839
-8.218448 0.538110 -1.901438
-8.208458 0.509823 -1.898721
-8.217362 0.482724 -1.900395
-8.211029 0.454732 -1.898567
-8.227616 0.427986 -1.902060
-8.229261 0.400410 -1.902120
-8.217918 0.372244 -1.899199
-8.208674 0.344251 -1.896785
-8.217402 0.317021 -1.898545
-8.225801 0.289727 -1.900251
-8.241996 0.262633 -1.903778
-8.235992 0.234803 -1.902198
-8.208525 0.206478 -1.895684
-8.217567 0.179138 -1.897623
-8.234545 0.151888 -1.901415
-8.222242 0.124086 -1.898467
-8.219685 0.096483 -1.897792
-8.246199 0.069144 -1.903849
-8.231063 0.041418 -1.900312
-8.237591 0.013831 -1.901798
-8.232020 0.000022 -1.900509
-9.772100 -0.016408 -1.899504
-9.789760 -0.049261 -1.902958
-9.777184 -0.081981 -1.900556
-9.771997 -0.114704 -1.899612
-9.757797 -0.147260 -1.896937
-9.767965 -0.180172 -1.899020
-9.766470 -0.212903 -1.898858
-9.774296 -0.245863 -1.900529
-9.773463 -0.278635 -1.900538
-9.770944 -0.311353 -1.900240
-9.765862 -0.343971 -1.899466
-9.772061 -0.376998 -1.900907
-9.776233 -0.409990 -1.901975
-9.772397 -0.442657 -1.901506
-9.762729 -0.475024 -1.899924
-9.761209 -0.507760 -1.899949
-9.765802 -0.540837 -1.901186
-9.752697 -0.572916 -1.898998
-9.752712 -0.605736 -1.899385
-9.759025 -0.638981 -1.901021
-9.751986 -0.671364 -1.900078
-9.736705 -0.703120 -1.897549
-9.756964 -0.737475 -1.901968
-9.735065 -0.768655 -1.898191
-9.743593 -0.802209 -1.900368
-9.746197 -0.835331 -1.901412
-9.740858 -0.867783 -1.900927
-9.738491 -0.900492 -1.901044
-9.728041 -0.932431 -1.899603
-9.725014 -0.965058 -1.899633
-9.717759 -0.997252 -1.898858
-9.724196 -1.030871 -1.900781
-9.719284 -1.063315 -1.900507
-9.712461 -1.095534 -1.899880
-9.711482 -1.128412 -1.900418
-9.687840 -1.158598 -1.896541
-9.702159 -1.193318 -1.900117
-9.701371 -1.226254 -1.900757
-9.702994 -1.259526 -1.901892
-9.683320 -1.290000 -1.898873
-9.692301 -1.324284 -1.901494
-9.690560 -1.357159 -1.902034
-9.677370 -1.388410 -1.900349
-9.670793 -1.420574 -1.899981
-9.661140 -1.452264 -1.899031
-9.668835 -1.486588 -1.901513
-9.662663 -1.518819 -1.901290
-9.658742 -1.551405 -1.901531
-9.640333 -1.581622 -1.898940
-9.625695 -1.612381 -1.897111
-9.640054 -1.648033 -1.901019
-9.646724 -1.682481 -1.903436
-9.633399 -1.713459 -1.901930
-9.600883 -1.740903 -1.896652
-9.599662 -1.773946 -1.897575
-9.604354 -1.808135 -1.899690
-9.599515 -1.840572 -1.899943
-9.592508 -1.872594 -1.899788
-9.594690 -1.906437 -1.901476
-9.572358 -1.935384 -1.898325
-9.578119 -1.969998 -1.900767
-9.573856 -2.002602 -1.901243
-9.555069 -2.032133 -1.898854
-9.554558 -2.065532 -1.900118
-9.559558 -2.100187 -1.902502
-9.538404 -2.129089 -1.899702
-9.520003 -2.158516 -1.897468
-9.520951 -2.192320 -1.899112
-9.522164 -2.226244 -1.900831
-9.497396 -2.254063 -1.897385
-9.507981 -2.290277 -1.901023
-9.496274 -2.321171 -1.900228
-9.490375 -2.353477 -1.900616
-9.478198 -2.384218 -1.899767
-9.461589 -2.413800 -1.898050
-9.468394 -2.449377 -1.901052
-9.451559 -2.478861 -1.899330
-9.456736 -2.514136 -1.902053
-9.435632 -2.542428 -1.899512
-9.425558 -2.573641 -1.899211
-9.420826 -2.606321 -1.900007
-9.398406 -2.634073 -1.897256
-9.409557 -2.671257 -1.901305
-9.408473 -2.705069 -1.902907
-9.383195 -2.731895 -1.899637
-9.376781 -2.764165 -1.900204
-9.359963 -2.793350 -1.898683
-9.364396 -2.828901 -1.901496
-9.341851 -2.856305 -1.898852
-9.344977 -2.891557 -1.901447
-9.330091 -2.921264 -1.900400
-9.329430 -2.955440 -1.902273
-9.300631 -2.980666 -1.898428
-9.298019 -3.014243 -1.899947
-9.293759 -3.047334 -1.901154
-9.290761 -3.080888 -1.902643
-9.258326 -3.104626 -1.898121
-9.265064 -3.141482 -1.901652
-9.241712 -3.168151 -1.899028
-9.244674 -3.203845 -1.901833
-9.223679 -3.231249 -1.899732
-9.204519 -3.259227 -1.898026
-9.204275 -3.293911 -1.900243
-9.181211 -3.320424 -1.897769
-9.191510 -3.359039 -1.902215
-9.178852 -3.389341 -1.901936
-9.152431 -3.414499 -1.898823
-9.148180 -3.447898 -1.900329
-9.134255 -3.477670 -1.899848
-9.122702 -3.508337 -1.899881
-9.115087 -3.540535 -1.900756
-9.098457 -3.569230 -1.899773
-9.086376 -3.599690 -1.899760
-9.081101 -3.632873 -1.901193
-9.063846 -3.661270 -1.900140
-9.064154 -3.696792 -1.902792
-9.028323 -3.717533 -1.897876
-9.021610 -3.750194 -1.899098
-9.010996 -3.781264 -1.899522
-8.996633 -3.810763 -1.899176
-8.985985 -3.841837 -1.899637
-8.970912 -3.871020 -1.899184
-8.960489 -3.902211 -1.899736
-8.951963 -3.934257 -1.900715
-8.917590 -3.954877 -1.896221
-8.914333 -3.989253 -1.898362
-8.909387 -4.022947 -1.900170
-8.888540 -4.049466 -1.898609
-8.887693 -4.085119 -1.901343
-8.857074 -4.107071 -1.897728
-8.848275 -4.139093 -1.898806
-8.849248 -4.175767 -1.902009
-8.826011 -4.201041 -1.900031
-8.808304 -4.228894 -1.899260
-8.799449 -4.261005 -1.900421
-8.786280 -4.291054 -1.900673
-8.761051 -4.315173 -1.898335
-8.749046 -4.345771 -1.898880
-8.753428 -4.384598 -1.903011
-8.730669 -4.409876 -1.901267
-8.706571 -4.434406 -1.899246
-8.693897 -4.464725 -1.899736
-8.680535 -4.494706 -1.900099
-8.659200 -4.520539 -1.898736
-8.654945 -4.555310 -1.901141
-8.632399 -4.580470 -1.899551
-8.619829 -4.610904 -1.900177
-8.601897 -4.638472 -1.899641
-8.587954 -4.668186 -1.900008
-8.565173 -4.693074 -1.898438
-8.554960 -4.724842 -1.899675
-8.533271 -4.750269 -1.898385
-8.527792 -4.784742 -1.900724
-8.512614 -4.813823 -1.900928
-8.493419 -4.840623 -1.900255
-8.464205 -4.861642 -1.897355
-8.462521 -4.898482 -1.900649
-8.439135 -4.922794 -1.899093
-8.420804 -4.950016 -1.898692
-8.409866 -4.981602 -1.899981
-8.398303 -5.012866 -1.901155
-8.372043 -5.035339 -1.899022
-8.374845 -5.075338 -1.903506
-8.344899 -5.095523 -1.900572
-8.320185 -5.118808 -1.898842
-8.306901 -5.149108 -1.899739
-8.292315 -5.178632 -1.900364
-8.280191 -5.209732 -1.901578
-8.269904 -5.242045 -1.903241
-8.241064 -5.262579 -1.900654
-8.235901 -5.298239 -1.903549
-8.200168 -5.314209 -1.899398
-8.182666 -5.341908 -1.899482
-8.156260 -5.363757 -1.897516
-8.149333 -5.398427 -1.900105
-8.133593 -5.427325 -1.900667
-8.101149 -5.445020 -1.897341
-8.097177 -5.481853 -1.900704
-8.073009 -5.505054 -1.899353
-8.065593 -5.539705 -1.901968
-8.038239 -5.560673 -1.899903
-8.021983 -5.589288 -1.900479
-8.004655 -5.617175 -1.900825
-8.001574 -5.655146 -1.904585
-7.974542 -5.676229 -1.902671
-7.958070 -5.704802 -1.903293
-7.924558 -5.721098 -1.899855
-7.909773 -5.750865 -1.900923
-7.901233 -5.785250 -1.903521
-7.873396 -5.805519 -1.901494
-7.849168 -5.828380 -1.900351
-7.819835 -5.847374 -1.897985
-7.810864 -5.881601 -1.900584
-7.796369 -5.911751 -1.901869
-7.765478 -5.929439 -1.899172
-7.746245 -5.955974 -1.899342
-7.736748 -5.990053 -1.901927
-7.708466 -6.009601 -1.899917
-7.704796 -6.048383 -1.904000
-7.677808 -6.068913 -1.902348
-7.647996 -6.087123 -1.900008
-7.628333 -6.113363 -1.900204
-7.609760 -6.140492 -1.900696
-7.591528 -6.167921 -1.901296
-7.566272 -6.189631 -1.900158
-7.544661 -6.214292 -1.899952
-7.530134 -6.244819 -1.901556
-7.508941 -6.269854 -1.901502
-7.486814 -6.294100 -1.901232
-7.461492 -6.315632 -1.900168
-7.444168 -6.343931 -1.901163
-7.419786 -6.366220 -1.900376
-7.397115 -6.389951 -1.900046
-7.383318 -6.421387 -1.902022
-7.350370 -6.436143 -1.899083
-7.319560 -6.452651 -1.896701
-7.310589 -6.488431 -1.900003
-7.290297 -6.514249 -1.900395
-7.274752 -6.544357 -1.902052
-7.246539 -6.563068 -1.900418
-7.204720 -6.569298 -1.895217
-7.196635 -6.606251 -1.898906
-7.185654 -6.640702 -1.901873
-7.162433 -6.663905 -1.901629
-7.134738 -6.682907 -1.900215
-7.115906 -6.710199 -1.901181
-7.089153 -6.730018 -1.900051
-7.066205 -6.753420 -1.899958
-7.032010 -6.765997 -1.896853
-7.018978 -6.798924 -1.899476
-6.989721 -6.816157 -1.897732
-6.984218 -6.856626 -1.902469
-6.948123 -6.867089 -1.898898
-6.930546 -6.895806 -1.900402
-6.898151 -6.909752 -1.897861
-6.882637 -6.940598 -1.899985
-6.858433 -6.962728 -1.899737
-6.831108 -6.981654 -1.898641
-6.818085 -7.015244 -1.901549
-6.784099 -7.027263 -1.898630
-6.773285 -7.063302 -1.902221
-6.735279 -7.070973 -1.898195
-6.708481 -7.090290 -1.897331
-6.696191 -7.125001 -1.900601
-6.673521 -7.148757 -1.900959
-6.647700 -7.169136 -1.900440
-6.629640 -7.197912 -1.902166
-6.601374 -7.215623 -1.900986
-6.567204 -7.226778 -1.898113
-6.547841 -7.254188 -1.899536
-6.524415 -7.277142 -1.899808
-6.501554 -7.300744 -1.900268
-6.466912 -7.311052 -1.897297
-6.446594 -7.337509 -1.898543
-6.429829 -7.368103 -1.900870
-6.396067 -7.379210 -1.898192
-6.375459 -7.405457 -1.899434
-6.359202 -7.436858 -1.902009
-6.328700 -7.451623 -1.900348
-6.315030 -7.486255 -1.903769
-6.280587 -7.496277 -1.900952
-6.255625 -7.517541 -1.901015
-6.225538 -7.532608 -1.899536
-6.201293 -7.554713 -1.899857
-6.176115 -7.575691 -1.899914
-6.156723 -7.603818 -1.901781
-6.131830 -7.625208 -1.901978
-6.096151 -7.633105 -1.898839
-6.079053 -7.664253 -1.901506
-6.056243 -7.688300 -1.902424
-6.019362 -7.694413 -1.898932
-5.992722 -7.713511 -1.898676
-5.970622 -7.738480 -1.899883
-5.945200 -7.759182 -1.900062
-5.915773 -7.774632 -1.898977
-5.892476 -7.798132 -1.899881
-5.873506 -7.827450 -1.902215
-5.842433 -7.840664 -1.900655
-5.811577 -7.854080 -1.899173
-5.783580 -7.871301 -1.898638
-5.754462 -7.886954 -1.897749
-5.727402 -7.905396 -1.897555
-5.711859 -7.939839 -1.901215
-5.680558 -7.952437 -1.899661
-5.654560 -7.972422 -1.899895
-5.624459 -7.986593 -1.898767
-5.604701 -8.015491 -1.901159
-5.581493 -8.039564 -1.902420
-5.544102 -8.043138 -1.898856
-5.519694 -8.065467 -1.899748
-5.492461 -8.083692 -1.899693
-5.470590 -8.109863 -1.901522
-5.443378 -8.128174 -1.901525
-5.408237 -8.134559 -1.898766
-5.390036 -8.166438 -1.901978
-5.360112 -8.180629 -1.901087
-5.327265 -8.190270 -1.899166
-5.303223 -8.213425 -1.900402
-5.272122 -8.225647 -1.899129
-5.250219 -8.252246 -1.901195
-5.219527 -8.265060 -1.900105
-5.190876 -8.281061 -1.899772
-5.166332 -8.303643 -1.900968
-5.132013 -8.310474 -1.898582
-5.108349 -8.334534 -1.900155
-5.079704 -8.350510 -1.899903
-5.047002 -8.359749 -1.898145
-5.022444 -8.382463 -1.899468
-4.990752 -8.393269 -1.898114
-4.966772 -8.417054 -1.899716
-4.943811 -8.442690 -1.901751
-4.915190 -8.458724 -1.901640
-4.884126 -8.470517 -1.900599
-4.849395 -8.475828 -1.898131
-4.825144 -8.499427 -1.899783
-4.799034 -8.519843 -1.900739
-4.764381 -8.525041 -1.898324
-4.738894 -8.546598 -1.899576
-4.712771 -8.567090 -1.900608
-4.684577 -8.583862 -1.900833
-4.653157 -8.594694 -1.899766
-4.631344 -8.623336 -1.902654
-4.583739 -8.603777 -1.894937
-4.569205 -8.646231 -1.900903
-4.537428 -8.656232 -1.899746
-4.507655 -8.670002 -1.899441
-4.484601 -8.696779 -1.902002
-4.449212 -8.699633 -1.899353
-4.426868 -8.728005 -1.902297
-4.394166 -8.736012 -1.900820
-4.366036 -8.753072 -1.901336
-4.338516 -8.771404 -1.902148
-4.301996 -8.771453 -1.899020
-4.277875 -8.796751 -1.901381
-4.244773 -8.803612 -1.899777
-4.217580 -8.822706 -1.900835
-4.185901 -8.832417 -1.899893
-4.158571 -8.851314 -1.900948
-4.128182 -8.863729 -1.900631
-4.103375 -8.888207 -1.902919
-4.065403 -8.884109 -1.899112
-4.036477 -8.899637 -1.899528
-4.005352 -8.910311 -1.898929
-3.981942 -8.938251 -1.902028
-3.944896 -8.935569 -1.898632
-3.922292 -8.965611 -1.902210
-3.886493 -8.965524 -1.899416
-3.856276 -8.978187 -1.899349
-3.827028 -8.993123 -1.899784
-3.798326 -9.009397 -1.900521
-3.766170 -9.017466 -1.899549
-3.739450 -9.038585 -1.901346
-3.704846 -9.040633 -1.899153
-3.674998 -9.054197 -1.899403
-3.649145 -9.077724 -1.901761
-3.617478 -9.086866 -1.901125
-3.582852 -9.088445 -1.898931
-3.551510 -9.098228 -1.898476
-3.525215 -9.121029 -1.900757
-3.492584 -9.127492 -1.899653
-3.463277 -9.142621 -1.900375
-3.432125 -9.152905 -1.900110
-3.396271 -9.150495 -1.897235
-3.373250 -9.182730 -1.901563
-3.343890 -9.197969 -1.902386
-3.309236 -9.198576 -1.900206
-3.274864 -9.199754 -1.898170
-3.248557 -9.223619 -1.900836
-3.217769 -9.234905 -1.900928
-3.184362 -9.238603 -1.899481
-3.153897 -9.250777 -1.899799
-3.121354 -9.256824 -1.898881
-3.092698 -9.274427 -1.900355
-3.061071 -9.283185 -1.900035
-3.028918 -9.290296 -1.899402
-2.995833 -9.294445 -1.898185
-2.965121 -9.305903 -1.898485
-2.933887 -9.315741 -1.898474
-2.905364 -9.334286 -1.900257
-2.873910 -9.343516 -1.900164
-2.836682 -9.333734 -1.896230
-2.808091 -9.352251 -1.898069
-2.778713 -9.368335 -1.899431
-2.748126 -9.380461 -1.900011
-2.714262 -9.381337 -1.898335
-2.680611 -9.382747 -1.896791
-2.649902 -9.394392 -1.897338
-2.624951 -9.426790 -1.902093
-2.588083 -9.416445 -1.898244
-2.560604 -9.440210 -1.901294
-2.524701 -9.432912 -1.898108
-2.492326 -9.438545 -1.897550
-2.465863 -9.466801 -1.901557
-2.437356 -9.487652 -1.904093
-2.399875 -9.473440 -1.899616
-2.371539 -9.495209 -1.902375
-2.336210 -9.488972 -1.899546
-2.307184 -9.508295 -1.901855
-2.274984 -9.514692 -1.901598
-2.241829 -9.516997 -1.900546
-2.210559 -9.527267 -1.901106
-2.175938 -9.522961 -1.898780
-2.142961 -9.525598 -1.897863
-2.111887 -9.536682 -1.898650
-2.081565 -9.551349 -1.900170
-2.051748 -9.568621 -1.902226
-2.016562 -9.560781 -1.899313
-1.987163 -9.580350 -1.901866
-1.951125 -9.567805 -1.898067
-1.920923 -9.583717 -1.899935
-1.888221 -9.587262 -1.899372
-1.857194 -9.599373 -1.900527
-1.824430 -9.602549 -1.899934
-1.791598 -9.605257 -1.899271
-1.760722 -9.618523 -1.900716
-1.725090 -9.605593 -1.897007
-1.695110 -9.624012 -1.899512
-1.664307 -9.638174 -1.901195
-1.630608 -9.635578 -1.899593
-1.599865 -9.650480 -1.901463
-1.566719 -9.650980 -1.900516
-1.534818 -9.659111 -1.901093
-1.500168 -9.649690 -1.898238
-1.469920 -9.668569 -1.900972
-1.436713 -9.668182 -1.899938
-1.406258 -9.686502 -1.902601
-1.368778 -9.655923 -1.895683
-1.341311 -9.695993 -1.902656
-1.305319 -9.674677 -1.897603
-1.275279 -9.697281 -1.901188
-1.240905 -9.687036 -1.898353
-1.208644 -9.692941 -1.898705
-1.177106 -9.704918 -1.900267
-1.145122 -9.713570 -1.901199
-1.111898 -9.711680 -1.900089
-1.077617 -9.699927 -1.897072
-1.047386 -9.724815 -1.901242
-1.013348 -9.714596 -1.898569
-0.982196 -9.732053 -1.901326
-0.948105 -9.720371 -1.898412
-0.916366 -9.732598 -1.900190
-0.883936 -9.737886 -1.900633
-0.851107 -9.738806 -1.900244
-0.818018 -9.736465 -1.899242
-0.786293 -9.750605 -1.901475
-0.753076 -9.746449 -1.900162
-0.719779 -9.740600 -1.898540
-0.686840 -9.739037 -1.897776
-0.655625 -9.762759 -1.901960
-0.622667 -9.761425 -1.901282
-0.589882 -9.762585 -1.901112
-0.556631 -9.755473 -1.899353
-0.524111 -9.760835 -1.900044
-0.491286 -9.760646 -1.899676
-0.458428 -9.759468 -1.899137
-0.425528 -9.756926 -1.898354
-0.393130 -9.766193 -1.899890
-0.360097 -9.759691 -1.898380
-0.327566 -9.766608 -1.899501
-0.294898 -9.770277 -1.900011
-0.262387 -9.780462 -1.901810
-0.229571 -9.780354 -1.901629
-0.196647 -9.774542 -1.900360
-0.163826 -9.772281 -1.899803
-0.131047 -9.771812 -1.899616
-0.098345 -9.778342 -1.900810
-0.065606 -9.785453 -1.902139
-0.032800 -9.786708 -1.902351
0.000013 -9.777132 -1.900479
0.032789 -9.775623 -1.900197
0.065606 -9.781631 -1.901396
0.098401 -9.781305 -1.901386
0.131171 -9.779099 -1.901032
0.163937 -9.777353 -1.900789
0.196454 -9.763648 -1.898242
0.229354 -9.769979 -1.899612
0.261953 -9.763337 -1.898481
0.295126 -9.776975 -1.901314
0.327482 -9.763307 -1.898859
0.360645 -9.773841 -1.901132
0.392957 -9.761239 -1.898926
0.425891 -9.764654 -1.899858
0.459052 -9.772213 -1.901618
0.491175 -9.757926 -1.899147
0.523156 -9.742577 -1.896490
0.556336 -9.749839 -1.898257
0.589203 -9.750912 -1.898839
0.622544 -9.759085 -1.900827
0.655562 -9.761426 -1.901700
0.687463 -9.747499 -1.899425
0.720225 -9.746286 -1.899649
0.753325 -9.749332 -1.900724
0.786188 -9.748986 -1.901160
0.819575 -9.754684 -1.902796
0.851794 -9.746363 -1.901720
0.883979 -9.738073 -1.900670
0.915810 -9.726414 -1.898983
0.949048 -9.729768 -1.900248
0.980773 -9.717704 -1.898523
1.013340 -9.714267 -1.898505
1.045099 -9.703339 -1.897043
1.078208 -9.705018 -1.898068
1.112550 -9.717143 -1.901158
1.143875 -9.702765 -1.899085
1.177439 -9.707443 -1.900762
1.208367 -9.690506 -1.898229
1.241160 -9.688818 -1.898702
1.275088 -9.695631 -1.900865
1.307069 -9.687449 -1.900109
1.341609 -9.697953 -1.903041
1.372904 -9.684851 -1.901363
1.404553 -9.674578 -1.900259
1.436384 -9.665788 -1.899468
1.468668 -9.660158 -1.899319
1.503461 -9.670702 -1.902372
1.533917 -9.653270 -1.899944
1.565891 -9.645716 -1.899480
1.598171 -9.640103 -1.899419
1.629775 -9.630502 -1.898594
1.665962 -9.647608 -1.903056
1.695248 -9.624643 -1.899637
1.728220 -9.622871 -1.900420
1.760305 -9.616102 -1.900238
1.790805 -9.600864 -1.898403
1.823028 -9.595032 -1.898448
1.856737 -9.596874 -1.900033
1.887603 -9.583990 -1.898725
1.920465 -9.581296 -1.899456
1.954863 -9.586006 -1.901678
1.983678 -9.563421 -1.898507
2.016484 -9.560289 -1.899217
2.050056 -9.560604 -1.900634
2.081222 -9.549653 -1.899833
2.115245 -9.551726 -1.901646
2.143250 -9.526764 -1.898096
2.177657 -9.530369 -1.900259
2.210023 -9.524844 -1.900624
2.242287 -9.518829 -1.900913
2.273334 -9.507679 -1.900198
2.302615 -9.489358 -1.898068
2.339364 -9.501674 -1.902090
2.369610 -9.487378 -1.900808
2.401976 -9.481628 -1.901259
2.435780 -9.481412 -1.902842
2.464119 -9.459999 -1.900192
2.493618 -9.443335 -1.898514
2.526994 -9.441378 -1.899813
2.558426 -9.432082 -1.899658
2.590339 -9.424556 -1.899881
2.619850 -9.408372 -1.898378
2.654316 -9.409945 -1.900480
2.685195 -9.398698 -1.900017
2.720304 -9.402126 -1.902543
2.749089 -9.383657 -1.900660
2.781053 -9.376131 -1.901014
2.812307 -9.366200 -1.900901
2.837302 -9.335688 -1.896629
2.874182 -9.344310 -1.900327
2.906509 -9.337879 -1.900991
2.936438 -9.323754 -1.900109
2.967812 -9.314262 -1.900192
2.997930 -9.300866 -1.899498
3.027323 -9.285317 -1.898385
3.058968 -9.276725 -1.898715
3.093190 -9.275820 -1.900642
3.123475 -9.263032 -1.900156
3.150516 -9.240779 -1.897748
3.183893 -9.237162 -1.899186
3.219182 -9.238880 -1.901748
3.248816 -9.224277 -1.900974
3.279118 -9.211625 -1.900622
3.310117 -9.200949 -1.900698
3.339191 -9.184968 -1.899699
3.371034 -9.176621 -1.900300
3.399981 -9.160416 -1.899294
3.428681 -9.143647 -1.898190
3.463069 -9.142000 -1.900247
3.492254 -9.126554 -1.899460
3.522325 -9.113479 -1.899186
3.553595 -9.103498 -1.899578
3.580770 -9.083092 -1.897815
3.612405 -9.074053 -1.898446
3.647047 -9.072435 -1.900655
3.675902 -9.056355 -1.899858
3.706865 -9.045490 -1.900175
3.737741 -9.034386 -1.900464
3.766097 -9.017222 -1.899499
3.799505 -9.012125 -1.901098
3.827262 -8.993608 -1.899889
3.852907 -8.970278 -1.897678
3.882948 -8.957281 -1.897672
3.919424 -8.958990 -1.900808
3.946244 -8.938560 -1.899270
3.974074 -8.920526 -1.898258
4.007911 -8.915941 -1.900132
4.035375 -8.897144 -1.898998
4.067948 -8.889609 -1.900291
4.094470 -8.868857 -1.898779
4.124524 -8.855813 -1.898936
4.158136 -8.850328 -1.900738
4.187342 -8.835398 -1.900537
4.219990 -8.827685 -1.901910
4.243649 -8.801220 -1.899263
4.278696 -8.798380 -1.901735
4.302738 -8.772906 -1.899337
4.338448 -8.771209 -1.902108
4.365214 -8.751367 -1.900968
4.393875 -8.735377 -1.900684
4.422811 -8.719950 -1.900543
4.451520 -8.704089 -1.900329
4.486465 -8.700337 -1.902783
4.509729 -8.673935 -1.900305
4.539368 -8.659876 -1.900549
4.561277 -8.631172 -1.897595
4.601798 -8.637618 -1.902393
4.629838 -8.620475 -1.902026
4.646965 -8.583200 -1.897229
4.689005 -8.591923 -1.902621
4.710511 -8.562927 -1.899687
4.740571 -8.549569 -1.900239
4.765790 -8.527509 -1.898877
4.796584 -8.515439 -1.899759
4.823731 -8.496886 -1.899218
4.853014 -8.482101 -1.899539
4.884846 -8.471713 -1.900870
4.919814 -8.466632 -1.903420
4.943285 -8.441739 -1.901540
4.968729 -8.420320 -1.900457
5.006419 -8.419567 -1.904065
5.021733 -8.381226 -1.899191
5.054172 -8.371573 -1.900833
5.080077 -8.351071 -1.900034
5.101711 -8.323653 -1.897677
5.135796 -8.316551 -1.899973
5.163247 -8.298635 -1.899825
5.200258 -8.295980 -1.903198
5.222604 -8.269885 -1.901217
5.253016 -8.256593 -1.902200
5.271011 -8.223866 -1.898721
5.296952 -8.203665 -1.898147
5.325896 -8.188117 -1.898670
5.354871 -8.172584 -1.899221
5.384680 -8.158277 -1.900081
5.408633 -8.135108 -1.898898
5.444083 -8.129181 -1.901764
5.465469 -8.102225 -1.899734
5.493223 -8.084766 -1.899948
5.524668 -8.072687 -1.901452
5.550774 -8.052772 -1.901134
5.568258 -8.020454 -1.897901
5.599109 -8.007448 -1.899256
5.629812 -7.994150 -1.900568
5.659080 -7.978749 -1.901406
5.681715 -7.954013 -1.900041
5.708038 -7.934484 -1.899936
5.742338 -7.925969 -1.902497
5.758372 -7.892270 -1.899032
5.786355 -7.875033 -1.899542
5.813754 -7.856977 -1.899878
5.841228 -7.839003 -1.900256
5.874562 -7.828815 -1.902551
5.895332 -7.801868 -1.900795
5.926470 -7.788647 -1.902404
5.947510 -7.762155 -1.900793
5.984497 -7.756421 -1.904292
5.997646 -7.719807 -1.900229
6.030066 -7.708054 -1.902302
6.036989 -7.663815 -1.896369
6.076249 -7.660676 -1.900623
6.095156 -7.631818 -1.898522
6.119223 -7.609489 -1.898061
6.155625 -7.602421 -1.901435
6.176710 -7.576378 -1.900091
6.206908 -7.561512 -1.901571
6.230570 -7.538656 -1.901066
6.251919 -7.513047 -1.899883
6.265893 -7.478699 -1.896499
6.302804 -7.471722 -1.900078
6.329130 -7.452089 -1.900471
6.343859 -7.418874 -1.897414
6.369716 -7.398746 -1.897718
6.399466 -7.383092 -1.899195
6.429922 -7.368170 -1.900892
6.448981 -7.340187 -1.899240
6.479507 -7.325253 -1.900986
6.502789 -7.302092 -1.900623
6.521407 -7.273748 -1.898926
6.546939 -7.253150 -1.899269
6.579467 -7.240234 -1.901652
6.606680 -7.221385 -1.902509
6.621993 -7.189572 -1.899966
6.645393 -7.166609 -1.899776
6.674165 -7.149409 -1.901137
6.691282 -7.119739 -1.899203
6.711984 -7.093955 -1.898317
6.739907 -7.075795 -1.899494
6.765309 -7.054947 -1.899976
6.792043 -7.035455 -1.900849
6.809935 -7.006820 -1.899270
6.830627 -6.981126 -1.898503
6.855572 -6.959786 -1.898939
6.887432 -6.945397 -1.901303
6.906378 -6.917956 -1.900120
6.927870 -6.893106 -1.899664
6.955598 -6.874441 -1.900936
6.966175 -6.838876 -1.897549
7.007378 -6.833339 -1.902521
7.022429 -6.802231 -1.900405
7.043364 -6.776885 -1.899911
7.072514 -6.759414 -1.901650
7.091332 -6.732050 -1.900630
7.115044 -6.709350 -1.900945
7.131186 -6.679543 -1.899264
7.144877 -6.647536 -1.896964
7.165710 -6.622235 -1.896589
7.201280 -6.610480 -1.900127
7.223241 -6.586151 -1.900084
7.244766 -6.561428 -1.899949
7.259520 -6.530619 -1.898065
7.285327 -6.509773 -1.899095
7.308228 -6.486301 -1.899385
7.326134 -6.458412 -1.898400
7.364662 -6.448623 -1.902771
7.385426 -6.423185 -1.902561
7.394447 -6.387612 -1.899357
7.425026 -6.370682 -1.901714
7.442566 -6.342532 -1.900749
7.466570 -6.319896 -1.901457
7.475103 -6.284221 -1.898254
7.503682 -6.265429 -1.900166
7.522192 -6.238199 -1.899546
7.561320 -6.227980 -1.904143
7.571167 -6.193601 -1.901383
7.592023 -6.168289 -1.901416
7.602683 -6.134748 -1.898924
7.625404 -6.110983 -1.899471
7.649710 -6.088454 -1.900430
7.680508 -6.071014 -1.903013
7.689861 -6.036626 -1.900305
7.717061 -6.016269 -1.902031
7.721783 -5.978434 -1.898244
7.753050 -5.961173 -1.901006
7.758726 -5.924251 -1.897517
7.787132 -5.904715 -1.899612
7.805536 -5.877557 -1.899283
7.830487 -5.855308 -1.900567
7.846427 -5.826312 -1.899684
7.862151 -5.797194 -1.898774
7.882238 -5.771310 -1.898942
7.913163 -5.753298 -1.901734
7.924034 -5.720688 -1.899726
7.950110 -5.699064 -1.901386
7.958828 -5.665013 -1.898918
7.993789 -5.649613 -1.902729
