# This PCD file was generated using the MATLAB® pcwrite function
# from Computer Vision Toolbox®.
# .PCD v.7 - Point Cloud Data file format
VERSION .7
FIELDS x y z
SIZE 4 4 4
TYPE F F F
COUNT 1 1 1
WIDTH 1611
HEIGHT 1
VIEWPOINT 0 0 0 1 0 0 0
POINTS 1611
DATA ascii
14.527183 -5.308918 -1.899088
14.539563 -5.258251 -1.898391
14.558002 -5.209792 -1.898507
14.586989 -5.165061 -1.900019
14.603130 -5.115741 -1.899876
14.607720 -5.062425 -1.898255
14.626808 -5.014173 -1.898540
14.649279 -4.967050 -1.899284
14.672848 -4.920253 -1.900190
14.688748 -4.870860 -1.900124
14.692646 -4.817534 -1.898528
14.725893 -4.773813 -1.900745
14.746387 -4.725879 -1.901335
14.754502 -4.673988 -1.900349
14.768751 -4.624073 -1.900177
14.786055 -4.575113 -1.900419
14.799242 -4.524880 -1.900154
14.810401 -4.474048 -1.899650
14.825682 -4.424475 -1.899696
14.839675 -4.374519 -1.899599
14.863579 -4.327454 -1.900791
14.880489 -4.278309 -1.901109
14.894181 -4.228232 -1.901036
14.911981 -4.179309 -1.901509
14.917261 -4.126896 -1.900407
14.933281 -4.077477 -1.900695
14.940816 -4.025755 -1.899926
14.968393 -3.979404 -1.901725
14.958210 -3.923048 -1.898750
14.999181 -3.880092 -1.902288
14.984713 -3.822792 -1.898817
14.992360 -3.771251 -1.898173
15.027282 -3.726508 -1.901002
15.027415 -3.673103 -1.899450
15.052731 -3.625850 -1.901103
15.052989 -3.572557 -1.899612
15.069142 -3.523063 -1.900149
15.083583 -3.473144 -1.900491
15.082793 -3.419752 -1.898936
15.108603 -3.372384 -1.900752
15.107928 -3.319094 -1.899256
15.127192 -3.270199 -1.900289
15.143129 -3.220538 -1.900924
15.150960 -3.169145 -1.900562
15.164273 -3.118899 -1.900910
15.163724 -3.065830 -1.899541
15.186731 -3.017518 -1.901146
15.200725 -2.967356 -1.901641
15.195405 -2.913463 -1.899743
15.214300 -2.864234 -1.900894
15.220407 -2.812577 -1.900468
15.226382 -2.760919 -1.900048
15.227934 -2.708497 -1.899097
15.240922 -2.658122 -1.899595
15.252375 -2.607455 -1.899922
15.251626 -2.554727 -1.898751
15.266382 -2.504607 -1.899532
15.277195 -2.453809 -1.899843
15.288111 -2.403010 -1.900188
15.287479 -2.350415 -1.899119
15.317228 -2.302446 -1.901845
15.298719 -2.247238 -1.898601
15.308125 -2.196212 -1.898844
15.334040 -2.147485 -1.901155
15.337483 -2.095559 -1.900700
15.346140 -2.044352 -1.900912
15.347520 -1.992188 -1.900245
15.354687 -1.940792 -1.900316
15.343745 -1.887165 -1.898168
15.374748 -1.838671 -1.901230
15.368119 -1.785635 -1.899660
15.368223 -1.733445 -1.898943
15.383389 -1.682941 -1.900109
15.386517 -1.631097 -1.899809
15.406827 -1.581031 -1.901652
15.398205 -1.527993 -1.899945
15.413183 -1.477310 -1.901171
15.411672 -1.425035 -1.900385
15.407063 -1.372526 -1.899238
15.421774 -1.321735 -1.900495
15.426766 -1.270075 -1.900575
15.418720 -1.217380 -1.899070
15.418157 -1.165332 -1.898508
15.439104 -1.114868 -1.900617
15.434582 -1.062535 -1.899611
5.502572 -0.360271 -0.677076
5.512935 -0.342391 -0.678206
5.505606 -0.323409 -0.677168
5.510951 -0.305185 -0.677695
5.514828 -0.286857 -0.678050
5.501372 -0.267665 -0.676282
5.513789 -0.249741 -0.677701
5.510720 -0.231091 -0.677225
5.506132 -0.212407 -0.676570
5.513975 -0.194197 -0.677450
5.515231 -0.175729 -0.677528
5.510575 -0.157088 -0.676887
5.504107 -0.138436 -0.676032
5.496838 -0.119813 -0.675086
5.514394 -0.101700 -0.677197
5.502182 -0.083021 -0.675659
5.497874 -0.064520 -0.675099
5.510169 -0.046188 -0.676586
5.500997 -0.027666 -0.675445
5.499826 -0.009220 -0.675294
5.493645 0.009210 -0.674535
5.498972 0.027656 -0.675196
5.493499 0.046048 -0.674540
5.496360 0.064502 -0.674914
5.505388 0.083070 -0.676053
5.505721 0.101540 -0.676131
5.499906 0.119880 -0.675463
5.478150 0.137783 -0.672844
5.502138 0.156848 -0.675851
5.486436 0.174812 -0.673991
5.490164 0.193359 -0.674524
5.514495 0.212730 -0.677597
5.499898 0.230637 -0.675895
5.500245 0.249128 -0.676037
5.482519 0.266748 -0.673964
5.491002 0.285617 -0.675121
5.514093 0.305359 -0.678082
5.497305 0.322921 -0.676147
5.491061 0.341032 -0.675516
5.494332 0.359732 -0.676063
5.493010 0.378145 -0.676052
5.504002 0.397448 -0.677565
5.486063 0.414647 -0.675524
5.496315 0.433960 -0.676962
5.492120 0.452162 -0.676628
5.501962 0.471550 -0.678032
5.501013 0.490053 -0.678113
5.496705 0.508251 -0.677788
15.396269 1.475689 -1.899085
15.390829 1.527261 -1.899035
15.379878 1.578266 -1.898326
15.386464 1.631091 -1.899803
15.386662 1.683299 -1.900514
15.377575 1.734500 -1.900099
15.380936 1.787124 -1.901244
15.373416 1.838511 -1.901066
15.362786 1.889507 -1.900524
15.354138 1.940723 -1.900248
15.345960 1.991986 -1.900052
15.353305 2.045306 -1.901800
15.337312 2.095535 -1.900678
15.320429 2.145578 -1.899467
15.313033 2.196916 -1.899453
15.305125 2.248179 -1.899396
15.293624 2.298898 -1.898915
15.292297 2.351156 -1.899718
15.294270 2.403978 -1.900954
15.278790 2.454065 -1.900041
15.268108 2.504890 -1.899747
15.266139 2.557158 -1.900558
15.255240 2.607945 -1.900279
15.233413 2.656812 -1.898659
15.249767 2.712380 -1.901820
15.218131 2.759423 -1.899018
15.205918 2.809899 -1.898659
15.218408 2.865007 -1.901407
15.201589 2.914649 -1.900516
15.195725 2.966380 -1.901016
15.174227 3.015033 -1.899580
15.177957 3.068708 -1.901325
15.153226 3.116627 -1.899525
15.135586 3.165929 -1.898633
15.149049 3.221797 -1.901667
15.130155 3.270839 -1.900661
15.118608 3.321441 -1.900599
15.098877 3.370213 -1.899528
15.103216 3.424382 -1.901508
15.078918 3.472070 -1.899903
15.070983 3.523493 -1.900381
15.049260 3.571672 -1.899142
15.050754 3.625374 -1.900853
15.039788 3.676127 -1.901014
15.033138 3.727961 -1.901743
15.022537 3.778841 -1.901994
14.987152 3.823415 -1.899126
15.002311 3.880901 -1.902685
14.964366 3.924663 -1.899531
14.964409 3.978345 -1.901219
14.937812 4.024946 -1.899544
14.927629 4.075934 -1.899976
14.910982 4.125159 -1.899607
14.905104 4.177382 -1.900632
14.885491 4.225765 -1.899927
14.880575 4.278334 -1.901120
14.859755 4.326340 -1.900302
14.836265 4.373514 -1.899163
14.829862 4.425723 -1.900232
14.816745 4.475965 -1.900463
14.802737 4.525949 -1.900602
14.778655 4.572824 -1.899468
14.772606 4.625280 -1.900673
14.756772 4.674707 -1.900642
14.743067 4.724814 -1.900906
14.736469 4.777242 -1.902110
14.707644 4.822452 -1.900466
14.676206 4.866700 -1.898501
14.678536 4.922160 -1.900927
14.655735 4.969239 -1.900121
14.641537 5.019222 -1.900451
14.624082 5.068095 -1.900381
14.600210 5.114717 -1.899496
14.591696 5.166727 -1.900632
14.576480 5.216404 -1.900917
14.551167 5.262447 -1.899906
14.536377 5.312278 -1.900290
14.521428 5.362073 -1.900676
14.508780 5.412750 -1.901385
14.489046 5.460797 -1.901187
14.446988 5.500335 -1.898078
14.444078 5.554746 -1.900132
14.427078 5.603806 -1.900356
14.407237 5.651764 -1.900228
14.395953 5.703106 -1.901251
14.382522 5.753650 -1.902014
14.351447 5.797112 -1.900465
14.326662 5.843049 -1.899766
14.305652 5.890499 -1.899588
14.289101 5.939793 -1.900024
14.259244 5.983530 -1.898711
14.248038 6.035090 -1.899903
14.232416 6.084834 -1.900530
14.216901 6.134661 -1.901194
14.187786 6.178606 -1.900060
14.169084 6.227060 -1.900340
14.148608 6.274745 -1.900405
14.122598 6.319958 -1.899747
14.103103 6.368073 -1.899986
14.077103 6.413241 -1.899369
14.065833 6.465142 -1.900763
14.047631 6.513914 -1.901244
14.009549 6.553415 -1.899053
14.001189 6.606811 -1.900912
13.976548 6.652569 -1.900584
13.959809 6.702102 -1.901353
13.933559 6.747077 -1.900848
13.905481 6.791130 -1.900113
13.887612 6.840166 -1.900794
13.851742 6.880303 -1.899031
13.842536 6.933689 -1.900946
13.811105 6.975967 -1.899831
13.785067 7.020925 -1.899476
13.772953 7.073012 -1.901064
13.739907 7.114358 -1.899785
13.729694 7.167547 -1.901685
13.686109 7.203289 -1.898982
13.669716 7.253292 -1.900071
13.642622 7.297640 -1.899696
13.616875 7.342692 -1.899528
13.601626 7.393441 -1.900848
13.569351 7.434943 -1.899811
13.557679 7.487760 -1.901681
13.517196 7.524655 -1.899530
13.494867 7.571603 -1.899949
13.463570 7.613507 -1.899126
13.447019 7.663763 -1.900405
13.410283 7.702507 -1.898853
13.387463 7.749209 -1.899290
13.363531 7.795291 -1.899592
13.335441 7.838948 -1.899324
13.321317 7.890862 -1.901070
13.295200 7.935729 -1.901129
13.262388 7.976573 -1.900251
13.231452 8.018500 -1.899660
13.203344 8.062116 -1.899495
13.173851 8.104870 -1.899150
13.153072 8.153004 -1.900085
13.127233 8.198038 -1.900312
13.083672 8.231937 -1.897991
13.069797 8.284505 -1.899997
13.038013 8.325767 -1.899424
13.012398 8.370960 -1.899770
12.976026 8.409205 -1.898566
12.959138 8.460093 -1.900234
12.925822 8.500289 -1.899518
12.909391 8.551621 -1.901306
12.865762 8.584924 -1.899109
12.831182 8.624165 -1.898262
12.816718 8.676970 -1.900415
12.771317 8.708820 -1.898002
12.758857 8.763137 -1.900506
12.739274 8.812694 -1.901980
12.692624 8.843491 -1.899431
12.658317 8.882779 -1.898743
12.648076 8.939032 -1.901692
12.603965 8.971374 -1.899572
12.575185 9.014564 -1.899779
12.552106 9.061885 -1.900872
12.513336 9.097873 -1.899609
12.481934 9.139170 -1.899483
12.454349 9.183273 -1.899960
12.424371 9.225634 -1.900095
12.392009 9.266221 -1.899886
12.357209 9.304959 -1.899323
12.331794 9.350777 -1.900225
12.301658 9.393050 -1.900424
12.270437 9.434505 -1.900477
12.238988 9.475788 -1.900516
12.204368 9.514602 -1.900083
12.175883 9.558203 -1.900627
12.141224 9.596962 -1.900229
12.098555 9.629318 -1.898593
12.082522 9.682908 -1.901161
12.042037 9.716947 -1.899906
12.002067 9.751316 -1.898747
11.980840 9.800939 -1.900577
11.940112 9.834628 -1.899337
11.901844 9.870272 -1.898503
11.890512 9.928346 -1.901994
11.838638 9.952589 -1.899024
11.810365 9.996594 -1.899854
11.754094 10.016803 -1.896194
11.683031 10.024055 -1.890141
11.597227 10.018138 -1.881683
11.519992 10.019062 -1.874591
11.439150 10.016315 -1.866891
11.362173 10.016414 -1.859798
11.298709 10.027988 -1.854903
11.212915 10.019254 -1.846323
11.147207 10.027958 -1.841030
11.072479 10.028104 -1.834230
10.996242 10.026372 -1.827160
10.909393 10.014377 -1.818298
10.832567 10.010984 -1.811077
10.758848 10.009945 -1.804353
10.705368 10.027361 -1.801012
10.621389 10.015766 -1.792524
10.551155 10.016582 -1.786328
10.483747 10.019630 -1.780593
10.408705 10.014902 -1.773541
10.350863 10.026299 -1.769403
10.265066 10.010118 -1.760464
10.198133 10.011773 -1.754732
10.135538 10.017279 -1.749731
10.066829 10.016314 -1.743657
9.990679 10.007428 -1.736270
9.931743 10.015328 -1.731853
9.868673 10.018690 -1.726703
9.800982 10.016927 -1.720726
9.738976 10.020546 -1.715729
9.677564 10.024386 -1.710821
9.605335 10.016562 -1.703980
9.536914 10.012193 -1.697788
9.471758 10.010784 -1.692154
9.422415 10.025752 -1.689335
9.345321 10.010769 -1.681521
9.284481 10.012688 -1.676605
9.222411 10.012875 -1.671449
9.161977 10.014434 -1.666572
9.099360 10.013196 -1.661280
9.048827 10.024915 -1.658181
8.981956 10.018157 -1.652073
8.921623 10.018242 -1.647145
8.865406 10.022573 -1.642961
8.799722 10.015783 -1.637002
8.739036 10.014228 -1.631949
8.681507 10.015894 -1.627468
8.616381 10.008361 -1.621541
8.565639 10.017153 -1.618303
8.502649 10.011250 -1.612735
8.448448 10.015297 -1.608815
8.386164 10.009361 -1.603336
8.324235 10.003387 -1.597899
8.276444 10.014055 -1.595162
8.218843 10.012535 -1.590521
8.169172 10.020343 -1.587401
8.105651 10.010774 -1.581571
8.052541 10.013645 -1.577751
8.001810 10.019161 -1.574384
7.937557 10.007335 -1.568335
7.886385 10.011581 -1.564847
7.833498 10.013326 -1.561006
7.784434 10.019652 -1.557915
7.717666 10.002755 -1.551255
7.673412 10.014646 -1.549101
7.617244 10.010685 -1.544529
7.562016 10.007553 -1.540125
7.518700 10.019897 -1.538137
7.460775 10.012455 -1.533146
7.418379 10.025543 -1.531333
7.354853 10.009706 -1.525138
7.304230 10.010981 -1.521593
7.256231 10.015548 -1.518581
7.196822 10.003974 -1.513159
7.158947 10.022037 -1.512252
7.103578 10.015351 -1.507641
7.045523 10.004413 -1.502430
6.997441 10.007243 -1.499323
6.953548 10.015811 -1.497105
6.900434 10.010788 -1.492888
6.850684 10.010273 -1.489377
6.796076 10.002268 -1.484788
6.747166 10.002263 -1.481420
6.709394 10.018560 -1.480494
6.654190 10.008546 -1.475709
6.611136 10.016468 -1.473601
6.560943 10.013285 -1.469888
6.513991 10.014713 -1.466883
6.462637 10.009024 -1.462868
6.424023 10.022803 -1.461725
6.374623 10.019515 -1.458121
6.316820 10.002554 -1.452562
6.276616 10.013096 -1.451029
6.221426 9.999395 -1.446012
6.183778 10.013581 -1.445058
6.127351 9.997028 -1.439696
6.087019 10.006371 -1.438094
6.055815 10.030665 -1.438660
5.992527 10.001472 -1.431583
5.960757 10.024529 -1.432014
5.908877 10.013555 -1.427609
5.860717 10.008455 -1.424072
5.823596 10.021973 -1.423209
5.775574 10.016490 -1.419673
5.725643 10.007281 -1.415639
5.690386 10.023477 -1.415223
5.639740 10.012306 -1.410968
5.590600 10.003355 -1.407057
5.550385 10.010061 -1.405375
5.505691 10.008433 -1.402547
5.463170 10.010467 -1.400257
5.422115 10.014948 -1.398333
5.375273 10.008430 -1.394899
5.330799 10.005960 -1.392056
5.292585 10.015005 -1.390837
5.244014 10.004149 -1.386880
5.195038 9.992046 -1.382780
5.164907 10.016002 -1.383691
5.115159 10.001708 -1.379339
5.080508 10.016655 -1.379044
5.030132 10.000306 -1.374463
4.999934 10.023851 -1.375387
4.949476 10.006549 -1.370729
4.904286 9.999412 -1.367491
4.865212 10.004446 -1.365941
4.819777 9.996097 -1.362587
4.779178 9.997437 -1.360578
4.745365 10.012841 -1.360501
4.702940 10.009908 -1.357952
4.658393 10.002090 -1.354765
4.625743 10.019626 -1.355032
4.580917 10.010589 -1.351725
4.540332 10.010468 -1.349646
4.502505 10.016207 -1.348377
4.454775 9.999548 -1.344116
4.415383 10.001198 -1.342340
4.377833 10.006818 -1.341117
4.335461 10.001147 -1.338401
4.302855 10.017839 -1.338697
4.251235 9.989893 -1.333050
4.218785 10.006625 -1.333388
4.182185 10.013469 -1.332424
4.137777 10.001302 -1.328952
4.098067 10.000102 -1.326959
4.063776 10.011965 -1.326718
4.023005 10.007672 -1.324354
3.979101 9.995162 -1.320925
3.944990 10.006985 -1.320732
3.905182 10.004184 -1.318627
3.867715 10.007123 -1.317298
3.830054 10.009353 -1.315894
3.792965 10.012878 -1.314678
3.754502 10.012550 -1.312975
3.710445 9.996884 -1.309282
3.672117 9.996232 -1.307576
3.639924 10.012180 -1.308059
3.601532 10.010978 -1.306317
3.559635 9.999648 -1.303274
3.523961 10.005488 -1.302488
3.486336 10.005597 -1.300973
3.448447 10.004691 -1.299344
3.405726 9.989335 -1.295860
3.377774 10.017185 -1.297996
3.335327 10.001938 -1.294564
3.299885 10.007337 -1.293824
3.263550 10.009868 -1.292729
3.228168 10.015163 -1.292008
3.187326 10.003192 -1.289078
3.145937 9.988954 -1.285876
3.111397 9.996132 -1.285450
3.078096 10.007258 -1.285547
3.036290 9.990425 -1.282069
3.004386 10.005906 -1.282756
2.968212 10.007126 -1.281629
2.933863 10.014359 -1.281289
2.891390 9.993445 -1.277365
2.859236 10.007874 -1.277977
2.822466 10.006062 -1.276530
2.784217 9.998646 -1.274386
2.747565 9.996600 -1.272944
2.715947 10.012814 -1.273842
2.679058 10.009521 -1.272273
2.641491 10.003331 -1.270353
2.607933 10.012116 -1.270351
2.570554 10.006027 -1.268478
2.537019 10.014700 -1.268492
2.498012 10.001468 -1.265748
2.463409 10.005501 -1.265206
2.425097 9.994123 -1.262732
2.390943 9.999553 -1.262398
2.356497 10.003666 -1.261913
2.321452 10.005085 -1.261103
2.284508 9.997993 -1.259237
2.249419 9.998687 -1.258367
2.215460 10.004264 -1.258127
2.176482 9.986753 -1.255000
2.144632 10.001666 -1.255963
2.110888 10.007864 -1.255846
2.077124 10.013931 -1.255726
2.037090 9.989220 -1.251764
2.003953 9.997826 -1.251993
1.969538 10.000007 -1.251433
1.938569 10.019834 -1.253093
1.900272 10.001588 -1.250008
1.867977 10.014596 -1.250844
1.829832 9.995912 -1.247737
1.795651 9.998332 -1.247280
1.761598 10.001343 -1.246912
1.727690 10.005079 -1.246649
1.694518 10.013074 -1.246930
1.656019 9.989039 -1.243238
1.622474 9.994263 -1.243204
1.590611 10.010060 -1.244499
1.553959 9.995521 -1.242037
1.520880 10.003580 -1.242398
1.484147 9.987201 -1.239738
1.450531 9.991279 -1.239634
1.416509 9.992449 -1.239183
1.384165 10.005574 -1.240228
1.349815 10.004263 -1.239498
1.314278 9.993624 -1.237627
1.279840 9.990767 -1.236735
1.246823 9.998910 -1.237218
1.212080 9.993041 -1.235982
1.178425 9.995832 -1.235832
1.145566 10.005507 -1.236546
1.113429 10.022039 -1.238121
1.077619 10.005272 -1.235596
1.043556 10.003932 -1.234992
1.009155 9.998916 -1.233948
0.976092 10.007030 -1.234538
0.942891 10.014030 -1.235005
0.906951 9.991139 -1.231800
0.874883 10.010553 -1.233825
0.840806 10.007377 -1.233079
0.807048 10.007656 -1.232773
0.773566 10.011292 -1.232894
0.739674 10.009469 -1.232358
0.705187 9.998816 -1.230748
0.671386 9.997054 -1.230247
0.637777 9.997886 -1.230079
0.603935 9.994716 -1.229433
0.570066 9.990458 -1.228667
0.537328 10.006500 -1.230412
0.503140 9.995615 -1.228859
0.469936 10.003895 -1.229676
0.436791 10.014554 -1.230800
0.402422 9.996367 -1.228392
0.369224 10.006314 -1.229455
0.335375 9.998641 -1.228367
0.302042 10.006084 -1.229151
0.268052 9.990648 -1.227137
0.234614 9.994063 -1.227453
0.201339 10.006422 -1.228881
0.167495 9.989575 -1.226736
0.134038 9.992832 -1.227074
0.100541 9.994025 -1.227172
0.067085 10.002125 -1.228132
0.033530 9.996488 -1.227419
0.000013 10.009068 -1.228957
-0.033532 10.005091 -1.228476
-0.067048 10.000622 -1.227948
-0.100624 10.004930 -1.228511
-0.134022 9.993639 -1.227173
-0.167684 10.002423 -1.228314
-0.201231 10.002383 -1.228385
-0.234940 10.009058 -1.229294
-0.268101 9.993474 -1.227484
-0.301657 9.994193 -1.227690
-0.335568 10.005182 -1.229171
-0.368949 9.999594 -1.228629
-0.402393 9.996297 -1.228383
-0.436155 10.000599 -1.229084
-0.469873 10.003134 -1.229583
-0.503752 10.008307 -1.230420
-0.537500 10.010188 -1.230865
-0.570466 9.997928 -1.229586
-0.605091 10.014286 -1.231840
-0.637243 9.989929 -1.229100
-0.672091 10.007958 -1.231589
-0.704802 9.993733 -1.230122
-0.740023 10.014563 -1.232984
-0.773047 10.004917 -1.232109
-0.805987 9.994824 -1.231192
-0.841018 10.010217 -1.233429
-0.873802 9.998485 -1.232337
-0.907511 9.997603 -1.232596
-0.941730 10.001984 -1.233519
-0.973610 9.981854 -1.231432
-1.008569 9.993374 -1.233263
-1.041991 9.989186 -1.233171
-1.076223 9.992562 -1.234026
-1.110104 9.992354 -1.234453
-1.145330 10.003684 -1.236320
-1.178788 9.999146 -1.236241
-1.213036 10.001146 -1.236984
-1.248431 10.012017 -1.238839
-1.280589 9.996826 -1.237484
-1.314228 9.993450 -1.237605
-1.350393 10.008747 -1.240053
-1.381598 9.987213 -1.237952
-1.418042 10.003458 -1.240548
-1.451080 9.995244 -1.240125
-1.486540 10.003488 -1.241760
-1.519778 9.996517 -1.241520
-1.552317 9.985130 -1.240745
-1.587598 9.991267 -1.242162
-1.621923 9.991033 -1.242802
-1.657818 10.000053 -1.244609
-1.693801 10.009002 -1.246422
-1.727083 10.001722 -1.246230
-1.761311 9.999870 -1.246728
-1.796309 10.002152 -1.247756
-1.831148 10.003250 -1.248652
-1.862919 9.987627 -1.247475
-1.897012 9.984571 -1.247880
-1.931074 9.981239 -1.248266
-1.969736 10.001147 -1.251575
-2.004676 10.001570 -1.252462
-2.038236 9.994977 -1.252485
-2.074880 10.003243 -1.254385
-2.111977 10.013155 -1.256509
-2.144477 10.001074 -1.255888
-2.178425 9.995795 -1.256136
-2.213626 9.996106 -1.257100
-2.246143 9.984246 -1.256549
-2.284330 9.997335 -1.259153
-2.321585 10.005777 -1.261189
-2.361057 10.023144 -1.264369
-2.390242 9.996737 -1.262042
-2.426935 10.001814 -1.263703
-2.461107 9.996264 -1.264037
-2.494972 9.989408 -1.264221
-2.533076 9.999248 -1.266534
-2.566317 9.989648 -1.266401
-2.604085 9.997452 -1.268490
-2.642861 10.008627 -1.271025
-2.673977 9.990646 -1.269873
-2.711210 9.995455 -1.271632
-2.745941 9.990794 -1.272203
-2.783440 9.995957 -1.274042
-2.822577 10.006556 -1.276592
-2.852361 9.983912 -1.274916
-2.891246 9.993049 -1.277314
-2.926305 9.988660 -1.278000
-2.966617 10.001846 -1.280952
-2.998972 9.987972 -1.280456
-3.038626 9.998205 -1.283067
-3.068674 9.976721 -1.281623
-3.107397 9.983374 -1.283808
-3.148614 9.997544 -1.286981
-3.186393 10.000353 -1.288711
-3.221421 9.994320 -1.289318
-3.257775 9.992244 -1.290452
-3.292753 9.985797 -1.291038
-3.328644 9.981985 -1.291981
-3.368992 9.991228 -1.294631
-3.410646 10.003855 -1.297742
-3.445758 9.996975 -1.298341
-3.482297 9.994094 -1.299476
-3.520339 9.995290 -1.301159
-3.556010 9.989550 -1.301956
-3.596431 9.996884 -1.304476
-3.633605 9.994881 -1.305797
-3.670830 9.992808 -1.307127
-3.708611 9.992024 -1.308644
-3.744776 9.986692 -1.309583
-3.786912 9.996978 -1.312589
-3.821166 9.986204 -1.312849
-3.863764 9.996980 -1.315961
-3.908345 10.012365 -1.319704
-3.937697 9.988562 -1.318300
-3.982374 10.003460 -1.322021
-4.018657 9.996933 -1.322931
-4.058013 9.997843 -1.324845
-4.098944 10.002316 -1.327251
-4.134863 9.994335 -1.328024
-4.174488 9.995114 -1.329980
-4.212613 9.992060 -1.331446
-4.252064 9.991916 -1.333319
-4.293877 9.997010 -1.335912
-4.335953 10.002355 -1.338561
-4.372124 9.993840 -1.339376
-4.415202 10.000858 -1.342293
-4.453815 9.997463 -1.343834
-4.491914 9.992717 -1.345213
-4.531890 9.991926 -1.347145
-4.569135 9.984913 -1.348257
-4.616405 9.999468 -1.352304
-4.653645 9.991962 -1.353392
-4.697052 9.997446 -1.356260
-4.733784 9.988474 -1.357189
-4.779012 9.997158 -1.360538
-4.817979 9.992434 -1.362086
-4.861737 9.997369 -1.364973
-4.901350 9.993493 -1.366680
-4.949785 10.007239 -1.370821
-4.982870 9.989706 -1.370700
-5.023143 9.986478 -1.372561
-5.073733 10.003366 -1.377212
-5.115350 10.002146 -1.379398
-5.152534 9.992072 -1.380383
-5.197656 9.997145 -1.383484
-5.237208 9.991228 -1.385087
-5.284242 9.999281 -1.388652
-5.322919 9.991234 -1.390005
-5.363329 9.986255 -1.391806
-5.415962 10.003646 -1.396753
-5.452183 9.990397 -1.397448
-5.498524 9.995467 -1.400728
-5.541714 9.994485 -1.403186
-5.578001 9.980874 -1.403893
-5.619196 9.975897 -1.405835
-5.671705 9.990632 -1.410583
-5.717171 9.992536 -1.413551
-5.767422 10.002413 -1.417675
-5.805798 9.991405 -1.418866
-5.844517 9.980851 -1.420142
-5.896871 9.993268 -1.424714
-5.942252 9.993468 -1.427575
-5.989317 9.996176 -1.430822
-6.030599 9.988958 -1.432675
-6.078834 9.992975 -1.436167
-6.126417 9.995564 -1.439483
-6.176303 10.001536 -1.443317
-6.208622 9.978876 -1.443043
-6.254282 9.977527 -1.445872
-6.309245 9.990617 -1.450826
-6.350492 9.981646 -1.452607
-6.408074 9.997978 -1.458103
-6.445064 9.981864 -1.458896
-6.488707 9.975899 -1.461195
-6.541263 9.983307 -1.465484
-6.592919 9.988926 -1.469546
-6.643302 9.992229 -1.473300
-6.682804 9.978913 -1.474633
-6.740221 9.992024 -1.479901
-6.789437 9.992555 -1.483343
-6.838661 9.992763 -1.486769
-6.884125 9.987184 -1.489365
-6.931598 9.984251 -1.492385
-6.988400 9.994370 -1.497391
-7.039153 9.995425 -1.501077
-7.077966 9.979296 -1.502210
-7.131815 9.984110 -1.506526
-7.183632 9.985695 -1.510391
-7.235905 9.987548 -1.514332
-7.284449 9.983925 -1.517478
-7.336586 9.984900 -1.521356
-7.394836 9.993781 -1.526478
-7.443271 9.989019 -1.529554
-7.500002 9.995035 -1.534317
-7.551238 9.993345 -1.537936
-7.598429 9.986012 -1.540719
-7.650350 9.984602 -1.544450
-7.705410 9.986926 -1.548797
-7.761431 9.990099 -1.553316
-7.811059 9.984698 -1.556540
-7.859943 9.978068 -1.559606
-7.923831 9.990084 -1.565628
-7.977003 9.988154 -1.569508
-8.036860 9.994199 -1.574683
-8.091453 9.993292 -1.578806
-8.148821 9.995433 -1.583452
-8.200575 9.990334 -1.586991
-8.253324 9.986134 -1.590711
-8.307527 9.983363 -1.594697
-8.361954 9.980520 -1.598712
-8.417113 9.978204 -1.602853
-8.479156 9.983643 -1.608284
-8.530444 9.976048 -1.611659
-8.596974 9.985872 -1.617894
-8.651988 9.981891 -1.621940
-8.716057 9.987949 -1.627663
-8.782300 9.996007 -1.633766
-8.839949 9.993847 -1.638248
-8.895303 9.988739 -1.642290
-8.951557 9.984305 -1.646486
-9.012011 9.984180 -1.651439
-9.071465 9.982553 -1.656192
-9.133443 9.983297 -1.661386
-9.197762 9.986166 -1.666987
-9.256495 9.982559 -1.671556
-9.328469 9.992770 -1.678493
-9.386259 9.987334 -1.682857
-9.454409 9.992501 -1.689059
-9.507932 9.981819 -1.692633
-9.564411 9.973939 -1.696725
-9.636330 9.981727 -1.703536
-9.706781 9.987473 -1.710062
-9.772278 9.987642 -1.715691
-9.835233 9.984794 -1.720857
-9.902267 9.985658 -1.726718
-9.961629 9.978382 -1.731226
-10.022820 9.972578 -1.736039
-10.094739 9.977008 -1.742692
-10.166036 9.980316 -1.749214
-10.232712 9.978621 -1.754920
-10.305523 9.982432 -1.761657
-10.366965 9.974794 -1.766434
-10.442796 9.980546 -1.773643
-10.512563 9.979998 -1.779799
-10.585275 9.981764 -1.786433
-10.658834 9.983828 -1.793188
-10.723022 9.976665 -1.798349
-10.805935 9.986424 -1.806629
-10.865546 9.974179 -1.810994
-10.949885 9.984158 -1.819461
-11.029013 9.988791 -1.827034
-11.091087 9.977527 -1.831765
-11.174934 9.985370 -1.840073
-11.246778 9.981952 -1.846382
-11.319111 9.978505 -1.852754
-11.402592 9.984357 -1.860929
-11.486825 9.990271 -1.869199
-11.554458 9.981246 -1.874748
-11.635994 9.983751 -1.882536
-11.698554 9.969524 -1.887239
-11.792710 9.981706 -1.897018
-11.852760 9.964515 -1.901293
-11.888828 9.926994 -1.901729
-11.898121 9.867237 -1.897913
-11.950256 9.843038 -1.900954
-11.983640 9.803282 -1.901026
-12.009377 9.757309 -1.899908
-12.036078 9.712191 -1.898970
-12.067804 9.671165 -1.898849
-12.113328 9.641129 -1.900915
-12.142021 9.597645 -1.900357
-12.178235 9.560102 -1.900998
-12.207820 9.517345 -1.900624
-12.230980 9.469640 -1.899276
-12.266445 9.431488 -1.899862
-12.296725 9.389336 -1.899665
-12.323161 9.344281 -1.898899
-12.359401 9.306662 -1.899664
-12.397283 9.270216 -1.900699
-12.426919 9.227577 -1.900488
-12.454347 9.183323 -1.899963
-12.490503 9.145494 -1.900791
-12.515128 9.099226 -1.899885
-12.536364 9.050570 -1.898491
-12.586140 9.022468 -1.901437
-12.614152 8.978675 -1.901111
-12.626819 8.924058 -1.898500
-12.669759 8.890859 -1.900463
-12.689143 8.841115 -1.898914
-12.722514 8.801149 -1.899481
-12.767517 8.769135 -1.901800
-12.772768 8.709860 -1.898221
-12.819302 8.678768 -1.900802
-12.852936 8.638836 -1.901483
-12.867161 8.585907 -1.899318
-12.891202 8.539621 -1.898630
-12.916706 8.494342 -1.898181
-12.958090 8.459459 -1.900084
-12.980907 8.412418 -1.899283
-13.009913 8.369411 -1.899411
-13.039743 8.326921 -1.899679
-13.064551 8.281228 -1.899238
-13.098186 8.241117 -1.900100
-13.121902 8.194757 -1.899544
-13.145849 8.148574 -1.899045
-13.178494 8.107775 -1.899823
-13.210741 8.066680 -1.900562
-13.241446 8.024604 -1.901098
-13.255286 7.972350 -1.899237
-13.285130 7.929766 -1.899692
-13.313877 7.886503 -1.900011
-13.350410 7.847795 -1.901459
-13.361115 7.793929 -1.899251
-13.399872 7.756440 -1.901053
-13.423516 7.710156 -1.900730
-13.440042 7.659835 -1.899422
-13.467837 7.615967 -1.899731
-13.485971 7.566659 -1.898700
-13.522727 7.527781 -1.900310
-13.541062 7.478629 -1.899353
-13.563971 7.432041 -1.899060
-13.606779 7.396288 -1.901571
-13.610679 7.339397 -1.898666
-13.647521 7.300308 -1.900381
-13.678503 7.258001 -1.901295
-13.699628 7.210450 -1.900861
-13.701505 7.152877 -1.897783
-13.741537 7.115249 -1.900013
-13.764156 7.068540 -1.899853
-13.795404 7.026236 -1.900904
-13.815639 6.978303 -1.900457
-13.830913 6.927913 -1.899352
-13.864985 6.886927 -1.900850
-13.878093 6.835523 -1.899494
-13.893553 6.785350 -1.898485
-13.927339 6.744111 -1.900002
-13.939401 6.692350 -1.898575
-13.967371 6.648246 -1.899338
-13.993895 6.603414 -1.899924
-14.024164 6.560297 -1.901036
-14.045900 6.513157 -1.901012
-14.052256 6.458947 -1.898931
-14.072755 6.411305 -1.898785
-14.097687 6.365673 -1.899259
-14.123445 6.320382 -1.899863
-14.120229 6.262204 -1.896596
-14.130889 6.210319 -1.895220
-14.107383 6.143635 -1.889294
-14.107751 6.087606 -1.886599
-14.115827 6.035032 -1.884963
-14.106704 5.975269 -1.881059
-14.112964 5.922192 -1.879235
-14.108615 5.864811 -1.876027
-14.109473 5.809764 -1.873541
-14.119187 5.758475 -1.872256
-14.114390 5.701399 -1.869075
-14.136409 5.655237 -1.869469
-14.102822 5.587023 -1.862540
-14.117930 5.538316 -1.862072
-14.106099 5.479173 -1.858078
-14.119447 5.429946 -1.857428
-14.113515 5.373416 -1.854267
-14.116262 5.320341 -1.852274
-14.110509 5.264211 -1.849193
-14.116013 5.212415 -1.847613
-14.104296 5.154418 -1.843808
-14.107272 5.101955 -1.841950
-14.101853 5.046595 -1.839023
-14.109076 4.995880 -1.837770
-14.094714 4.937675 -1.833733
-14.111611 4.890536 -1.833788
-14.114415 4.838563 -1.832034
-14.111311 4.784686 -1.829538
-14.100528 4.728378 -1.826074
-14.119918 4.682274 -1.826542
-14.113223 4.627590 -1.823659
-14.104937 4.572554 -1.820597
-14.098395 4.518253 -1.817787
-14.109749 4.469781 -1.817308
-14.104345 4.416090 -1.814695
-14.119185 4.368811 -1.814710
-14.109719 4.314098 -1.811624
-14.119922 4.265503 -1.811087
-14.110539 4.211094 -1.808062
-14.106837 4.158530 -1.805791
-14.102883 4.106021 -1.803513
-14.121194 4.060043 -1.804103
-14.115032 4.007084 -1.801590
-14.114654 3.955887 -1.799838
-14.109184 3.903380 -1.797462
-14.104140 3.851124 -1.795164
-14.110178 3.801983 -1.794300
-14.106864 3.750404 -1.792270
-14.114060 3.701695 -1.791597
-14.107460 3.649455 -1.789196
-14.111640 3.600100 -1.788185
-14.120730 3.552037 -1.787818
-14.104693 3.497762 -1.784293
-14.107850 3.448376 -1.783220
-14.104550 3.397495 -1.781353
-14.108952 3.348546 -1.780481
-14.095276 3.295419 -1.777350
-14.116405 3.250481 -1.778630
-14.101757 3.197359 -1.775424
-14.111360 3.149828 -1.775293
-14.101306 3.097987 -1.772712
-14.114911 3.051403 -1.773126
-14.101108 2.998967 -1.770119
-14.098806 2.949103 -1.768579
-14.098799 2.899797 -1.767349
-14.110608 2.852948 -1.767620
-14.105749 2.802772 -1.765824
-14.104959 2.753489 -1.764560
-14.107328 2.704881 -1.763712
-14.103946 2.655238 -1.762166
-14.102660 2.606067 -1.760903
-14.106679 2.557928 -1.760325
-14.106873 2.509139 -1.759289
-14.099561 2.459099 -1.757339
-14.094828 2.409607 -1.755732
-14.114149 2.364232 -1.757142
-14.112007 2.315258 -1.755899
-14.105403 2.265635 -1.754122
-14.099681 2.216249 -1.752477
-14.112394 2.169787 -1.753143
-14.109340 2.120918 -1.751870
-14.106923 2.072212 -1.750697
-14.103026 2.023358 -1.749362
-14.106875 1.975662 -1.749008
-14.103214 1.926959 -1.747743
-14.107988 1.879449 -1.747544
-14.103732 1.830776 -1.746247
-14.105139 1.782891 -1.745671
-14.101937 1.734470 -1.744545
-14.092692 1.685387 -1.742693
-14.098383 1.638141 -1.742707
-14.092823 1.589625 -1.741352
-14.095945 1.542133 -1.741089
-14.111173 1.495938 -1.742340
-14.119544 1.448970 -1.742764
-14.100109 1.399219 -1.739776
-14.106469 1.352103 -1.739992
-14.106814 1.304419 -1.739486
-14.097746 1.255924 -1.737838
-14.114611 1.209741 -1.739408
-14.116425 1.162233 -1.739141
-14.117295 1.114664 -1.738778
-14.105997 1.066195 -1.736937
-14.101949 1.018349 -1.736008
-14.102321 0.970858 -1.735643
-14.112807 0.924049 -1.736543
-14.098871 0.875673 -1.734457
-14.089693 0.827690 -1.732977
-14.102509 0.781006 -1.734221
-14.111135 0.734035 -1.734969
-14.098801 0.686003 -1.733160
-14.108852 0.639084 -1.734123
-14.113388 0.591879 -1.734427
-14.095870 0.543807 -1.732040
-14.088141 0.496210 -1.730876
-14.098264 0.449244 -1.731925
-14.100890 0.402007 -1.732072
-14.090217 0.354427 -1.730606
-14.095452 0.307273 -1.731113
-14.093127 0.259951 -1.730710
-14.093202 0.212687 -1.730622
-14.087502 0.165360 -1.729844
-14.079215 0.118053 -1.728768
-14.120728 0.071054 -1.733827
-14.089688 0.023657 -1.729996
-14.092786 0.000037 -1.730374
-14.095250 -0.023667 -1.233175
-14.110345 -0.071002 -1.234509
-14.096720 -0.118199 -1.233345
-14.093662 -0.165432 -1.233119
-14.090031 -0.212639 -1.232857
-14.102756 -0.260129 -1.234039
-14.092392 -0.307206 -1.233216
-14.104794 -0.354793 -1.234398
-14.097406 -0.401908 -1.233863
-14.091989 -0.449044 -1.233513
-14.085620 -0.496121 -1.233094
-14.101226 -0.544014 -1.234613
-14.100578 -0.591342 -1.234723
-14.087193 -0.638102 -1.233732
-14.104059 -0.686259 -1.235403
-14.100409 -0.733477 -1.235292
-14.104630 -0.781124 -1.235884
-14.112877 -0.829052 -1.236843
-14.101926 -0.875863 -1.236134
-14.105872 -0.923595 -1.236745
-14.085360 -0.969691 -1.235224
-14.097947 -1.018060 -1.236621
-14.093431 -1.065245 -1.236531
-14.084375 -1.112065 -1.236056
-14.084711 -1.159622 -1.236420
-14.097442 -1.208270 -1.237886
-14.097132 -1.255870 -1.238222
-14.100827 -1.303866 -1.238924
-14.091059 -1.350626 -1.238456
-14.112038 -1.400402 -1.240706
-14.101830 -1.447152 -1.240228
-14.088512 -1.493536 -1.239490
-14.096035 -1.542143 -1.240600
-14.100841 -1.590530 -1.241485
-14.107916 -1.639249 -1.242585
-14.093427 -1.685475 -1.241799
-14.104896 -1.734834 -1.243316
-14.098145 -1.782007 -1.243240
-14.103307 -1.830721 -1.244230
-14.090717 -1.877148 -1.243667
-14.088525 -1.924952 -1.244036
-14.091578 -1.973520 -1.244883
-14.105866 -2.023766 -1.246738
-14.108081 -2.072382 -1.247541
-14.091964 -2.118306 -1.246737
-14.093589 -2.166896 -1.247516
-14.102509 -2.216693 -1.248957
-14.097164 -2.264312 -1.249149
-14.100431 -2.313359 -1.250118
-14.115436 -2.364448 -1.252144
-14.110334 -2.412258 -1.252402
-14.086576 -2.456834 -1.251018
-14.090947 -2.506307 -1.252145
-14.102158 -2.557108 -1.253896
-14.091323 -2.603972 -1.253702
-14.100900 -2.654665 -1.255339
-14.096648 -2.702834 -1.255760
-14.101854 -2.752883 -1.257039
-14.093624 -2.800363 -1.257135
-14.117761 -2.854394 -1.260135
-14.111056 -2.902318 -1.260398
-14.090295 -2.947323 -1.259419
-14.092557 -2.997148 -1.260512
-14.093858 -3.046852 -1.261535
-14.085819 -3.094584 -1.261737
-14.087566 -3.144518 -1.262831
-14.101216 -3.197236 -1.265009
-14.094600 -3.245460 -1.265384
-14.088478 -3.293830 -1.265819
-14.102331 -3.346975 -1.268065
-14.095410 -3.395293 -1.268459
-14.100183 -3.446502 -1.269921
-14.102692 -3.497265 -1.271196
-14.092309 -3.544887 -1.271324
-14.102214 -3.597695 -1.273299
-14.087381 -3.644261 -1.273056
-14.096182 -3.697006 -1.274964
-14.095469 -3.747374 -1.276029
-14.078715 -3.793505 -1.275656
-14.088342 -3.846810 -1.277690
-14.080235 -3.895371 -1.278132
-14.078148 -3.945655 -1.279136
-14.101459 -4.003231 -1.282467
-14.097428 -4.053210 -1.283329
-14.097006 -4.104310 -1.284536
-14.084687 -4.152000 -1.284675
-14.091804 -4.205503 -1.286603
-14.102072 -4.260111 -1.288837
-14.082601 -4.305807 -1.288370
-14.099264 -4.362647 -1.291225
-14.096064 -4.413496 -1.292280
-14.090656 -4.463733 -1.293149
-14.085748 -4.514200 -1.294080
-14.096842 -4.569930 -1.296500
-14.115204 -4.628240 -1.299608
-14.100281 -4.675762 -1.299671
-14.082806 -4.722435 -1.299512
-14.098540 -4.780356 -1.302436
-14.083357 -4.827916 -1.302521
-14.097257 -4.885561 -1.305314
-14.091004 -4.936376 -1.306260
-14.089162 -4.988828 -1.307633
-14.089254 -5.042086 -1.309203
-14.097454 -5.098404 -1.311546
-14.096455 -5.151553 -1.313053
-14.093419 -5.204072 -1.314388
-14.087892 -5.255773 -1.315508
-14.081705 -5.307317 -1.316585
-14.090162 -5.364525 -1.319050
-14.099960 -5.422452 -1.321661
-14.090985 -5.473302 -1.322533
-14.095811 -5.529639 -1.324718
-14.087365 -5.580899 -1.325676
-14.089848 -5.636611 -1.327680
-14.090397 -5.691707 -1.329523
-14.092305 -5.747511 -1.331514
-14.092272 -5.802681 -1.333341
-14.088861 -5.856599 -1.334869
-14.093260 -5.913923 -1.337157
-14.096016 -5.970741 -1.339310
-14.088231 -6.023234 -1.340482
-14.090619 -6.080214 -1.342641
-14.085636 -6.134165 -1.344119
-14.085371 -6.190314 -1.346066
-14.102329 -6.254266 -1.349683
-14.093562 -6.307009 -1.350860
-14.085633 -6.360230 -1.352137
-14.105021 -6.426005 -1.356059
-14.090338 -6.476451 -1.356727
-14.084654 -6.531127 -1.358281
-14.089942 -6.591067 -1.360914
-14.099180 -6.653096 -1.363953
-14.095054 -6.709022 -1.365722
-14.082594 -6.761097 -1.366704
-14.078197 -6.817162 -1.368488
-14.081267 -6.877026 -1.371020
-14.085212 -6.937538 -1.373661
-14.082657 -6.995048 -1.375691
-14.085814 -7.055593 -1.378303
-14.098629 -7.121243 -1.381885
-14.087645 -7.175079 -1.383159
-14.085592 -7.233613 -1.385331
-14.090302 -7.295836 -1.388192
-14.078654 -7.349768 -1.389464
-14.090218 -7.416028 -1.393052
-14.068531 -7.464956 -1.393374
-14.086954 -7.535368 -1.397694
-14.079601 -7.592258 -1.399482
-14.090162 -7.659042 -1.403076
-14.077122 -7.713210 -1.404345
-14.085051 -7.779070 -1.407730
-14.084996 -7.840783 -1.410344
-14.075619 -7.897497 -1.412048
-14.089385 -7.967448 -1.416101
-14.089722 -8.030105 -1.418833
-14.086961 -8.091223 -1.421279
-14.084840 -8.152930 -1.423815
-14.089557 -8.218850 -1.427069
-14.094215 -8.285028 -1.430347
-14.080643 -8.340698 -1.431799
-14.086326 -8.407991 -1.435236
-14.086374 -8.472205 -1.438127
-14.072274 -8.528104 -1.439598
-14.080699 -8.597890 -1.443401
-14.095222 -8.671771 -1.447862
-14.084414 -8.730351 -1.449751
-14.081412 -8.793981 -1.452468
-14.093948 -8.867632 -1.456820
-14.100360 -8.937797 -1.460572
-14.086764 -8.995527 -1.462280
-14.087948 -9.062922 -1.465549
-14.101132 -9.138393 -1.470099
-14.077610 -9.190317 -1.470851
-14.095505 -9.269549 -1.475960
-14.090362 -9.333990 -1.478690
-14.081977 -9.396521 -1.481108
-14.079529 -9.463264 -1.484179
-14.084991 -9.535650 -1.488117
-14.081328 -9.602178 -1.491123
-14.088820 -9.676648 -1.495343
-14.090761 -9.747672 -1.499010
-14.084974 -9.813656 -1.501886
-14.003708 -9.826942 -1.496726
-13.899891 -9.823807 -1.489142
-13.802714 -9.824687 -1.482252
-13.709522 -9.827773 -1.475774
-13.602024 -9.819920 -1.467738
-13.511325 -9.823519 -1.461497
-13.422119 -9.827621 -1.455404
-13.321853 -9.822987 -1.448095
-13.213071 -9.811332 -1.439838
-13.132423 -9.819926 -1.434629
-13.041346 -9.820168 -1.428268
-12.950558 -9.820018 -1.421923
-12.862232 -9.821136 -1.415833
-12.770446 -9.819007 -1.409346
-12.685745 -9.821734 -1.403624
-12.591997 -9.816854 -1.396885
-12.507811 -9.818823 -1.391190
-12.414347 -9.812903 -1.384446
-12.340577 -9.822000 -1.379884
-12.257172 -9.822925 -1.374233
-12.162156 -9.813927 -1.367262
-12.080825 -9.815358 -1.361811
-12.002096 -9.818380 -1.356639
-11.920174 -9.818259 -1.351093
-11.844208 -9.822527 -1.346207
-11.752621 -9.813263 -1.339530
-11.688509 -9.826430 -1.335970
-11.606581 -9.824160 -1.330363
-11.526265 -9.822700 -1.324925
-11.440822 -9.816292 -1.318879
-11.366164 -9.818589 -1.314060
-11.286568 -9.816104 -1.308656
-11.215485 -9.820521 -1.304224
-11.126737 -9.808915 -1.297721
-11.062107 -9.818049 -1.294015
-10.989546 -9.819715 -1.289371
-10.923232 -9.826524 -1.285449
-10.843622 -9.820886 -1.279948
-10.767510 -9.817867 -1.274843
-10.700954 -9.823090 -1.270855
-10.635225 -9.828662 -1.266955
-10.548949 -9.814709 -1.260591
-10.482257 -9.818432 -1.256548
-10.404159 -9.810974 -1.251122
-10.342537 -9.818585 -1.247663
-10.273934 -9.819160 -1.243352
-10.198999 -9.813182 -1.238258
-10.130427 -9.812827 -1.233921
-10.063466 -9.813577 -1.229765
-9.996176 -9.813560 -1.225556
-9.924478 -9.808732 -1.220791
-9.862213 -9.812778 -1.217172
-9.792628 -9.809097 -1.212636
-9.731796 -9.813751 -1.209171
-9.671000 -9.818063 -1.205701
-9.608088 -9.819836 -1.201955
-9.541257 -9.817162 -1.197706
-9.482694 -9.822585 -1.194482
-9.409206 -9.812088 -1.189362
-9.354798 -9.821054 -1.186641
-9.283686 -9.812061 -1.181786
-9.225019 -9.815768 -1.178501
-9.158392 -9.810581 -1.174185
-9.104219 -9.818340 -1.171454
-9.038894 -9.813680 -1.167275
-8.975739 -9.810920 -1.163361
-8.921373 -9.817387 -1.160574
-8.858254 -9.813837 -1.156637
-8.792826 -9.807261 -1.152381
-8.744242 -9.819109 -1.150322
-8.679749 -9.812736 -1.146159
-8.631039 -9.823843 -1.144070
-8.563848 -9.813529 -1.139519
-8.522207 -9.832162 -1.138358
-8.441151 -9.804875 -1.131916
-8.392705 -9.814966 -1.129826
-8.339571 -9.819291 -1.127099
-8.271940 -9.806107 -1.122395
-8.217571 -9.808190 -1.119474
-8.173644 -9.822473 -1.117970
-8.099916 -9.800517 -1.112374
-8.061988 -9.821500 -1.111681
-7.995664 -9.807569 -1.107064
-7.950188 -9.818825 -1.105319
-7.889735 -9.811242 -1.101482
-7.825600 -9.798580 -1.097108
-7.790598 -9.822109 -1.096812
-7.736442 -9.821285 -1.093817
-7.671415 -9.806195 -1.089266
-7.622022 -9.810659 -1.086917
-7.580442 -9.824956 -1.085679
-7.518801 -9.812915 -1.081557
-7.463302 -9.808426 -1.078298
-7.418288 -9.817399 -1.076544
-7.364565 -9.814542 -1.073517
-7.311762 -9.812532 -1.070610
-7.253255 -9.802442 -1.066849
-7.204177 -9.804696 -1.064460
-7.155909 -9.807751 -1.062181
-7.105836 -9.808017 -1.059623
-7.056121 -9.808446 -1.057108
-7.015512 -9.821292 -1.055951
-6.955884 -9.807172 -1.051920
-6.910883 -9.813284 -1.050084
-6.866284 -9.819728 -1.048304
-6.815376 -9.816845 -1.045551
-6.766479 -9.816508 -1.043093
-6.707873 -9.801653 -1.039119
-6.671619 -9.819153 -1.038597
-6.612024 -9.801979 -1.034430
-6.568187 -9.807763 -1.032711
-6.526662 -9.816789 -1.031351
-6.476214 -9.812105 -1.028572
-6.424170 -9.804599 -1.025521
-6.387370 -9.820101 -1.024897
-6.338795 -9.817280 -1.022379
-6.284175 -9.804669 -1.018865
-6.236100 -9.801845 -1.016394
-6.205562 -9.826436 -1.016780
-6.154325 -9.818064 -1.013773
-6.105651 -9.813375 -1.011170
-6.049603 -9.796365 -1.007321
-6.004900 -9.797302 -1.005342
-5.965869 -9.807272 -1.004307
-5.921690 -9.808563 -1.002400
-5.879052 -9.812142 -1.000746
-5.829378 -9.803641 -0.997880
-5.787721 -9.808294 -0.996372
-5.738669 -9.800092 -0.993579
-5.699594 -9.808633 -0.992502
-5.657056 -9.811007 -0.990817
-5.612550 -9.809678 -0.988777
-5.570976 -9.813199 -0.987244
-5.523417 -9.805858 -0.984637
-5.484478 -9.813530 -0.983555
-5.435696 -9.803281 -0.980696
-5.398454 -9.813557 -0.979907
-5.352565 -9.807862 -0.977541
-5.315348 -9.817803 -0.976751
-5.266197 -9.805400 -0.973754
-5.227363 -9.811872 -0.972651
-5.184143 -9.809866 -0.970724
-5.137043 -9.800139 -0.968052
-5.097870 -9.805219 -0.966860
-5.062405 -9.817287 -0.966370
-5.016138 -9.808155 -0.963811
-4.977455 -9.813542 -0.962695
-4.934093 -9.809440 -0.960664
-4.882994 -9.789474 -0.957100
-4.852045 -9.809633 -0.957475
-4.808036 -9.803232 -0.955271
-4.773720 -9.816376 -0.954987
-4.728714 -9.807301 -0.952556
-4.683158 -9.796642 -0.949991
-4.654062 -9.820257 -0.950762
-4.604979 -9.801471 -0.947443
-4.566789 -9.805472 -0.946345
-4.529309 -9.810811 -0.945389
-4.487929 -9.807454 -0.943610
-4.447296 -9.805413 -0.941974
-4.407497 -9.804923 -0.940502
-4.369248 -9.807637 -0.939352
-4.332789 -9.814187 -0.938582
-4.288138 -9.801864 -0.936024
-4.248764 -9.801225 -0.934597
-4.209839 -9.801353 -0.933258
-4.171495 -9.802588 -0.932039
-4.140010 -9.819850 -0.932355
-4.093985 -9.802361 -0.929386
-4.061013 -9.815831 -0.929367
-4.015448 -9.798569 -0.926453
-3.976535 -9.797101 -0.925048
-3.939013 -9.798807 -0.923957
-3.901983 -9.801523 -0.922974
-3.863005 -9.799095 -0.921521
-3.830136 -9.812009 -0.921522
-3.791355 -9.809629 -0.920100
-3.751826 -9.804993 -0.918480
-3.714296 -9.805281 -0.917335
-3.676093 -9.803527 -0.916013
-3.640661 -9.808948 -0.915374
-3.602224 -9.806048 -0.913971
-3.565607 -9.807842 -0.913019
-3.526248 -9.801798 -0.911350
-3.491425 -9.808118 -0.910844
-3.455063 -9.809950 -0.909934
-3.414690 -9.800061 -0.907949
-3.380483 -9.807595 -0.907592
-3.343390 -9.806583 -0.906456
-3.301533 -9.791170 -0.904003
-3.271464 -9.810513 -0.904771
-3.230596 -9.797295 -0.902548
-3.197020 -9.805898 -0.902348
-3.160767 -9.806144 -0.901390
-3.122753 -9.800622 -0.899916
-3.086385 -9.799953 -0.898899
-3.049738 -9.798128 -0.897788
-3.016881 -9.808337 -0.897792
-2.981065 -9.808809 -0.896915
-2.942923 -9.801302 -0.895322
-2.911003 -9.814347 -0.895617
-2.875012 -9.813577 -0.894662
-2.838881 -9.812057 -0.893650
-2.799856 -9.800133 -0.891704
-2.768945 -9.816422 -0.892337
-2.730818 -9.806982 -0.890641
-2.693735 -9.800847 -0.889259
-2.658387 -9.800711 -0.888433
-2.622414 -9.797994 -0.887385
-2.586743 -9.796105 -0.886423
-2.557643 -9.819156 -0.887728
-2.517051 -9.797872 -0.885036
-2.480884 -9.793221 -0.883859
-2.449617 -9.807817 -0.884430
-2.411988 -9.796757 -0.882699
-2.381664 -9.815240 -0.883640
-2.345776 -9.810769 -0.882524
-2.314186 -9.824166 -0.883026
-2.274929 -9.804695 -0.880586
-2.240067 -9.803621 -0.879810
-2.205329 -9.802826 -0.879070
-2.169562 -9.797128 -0.877902
-2.137538 -9.808182 -0.878245
-2.100038 -9.793825 -0.876324
-2.068246 -9.805821 -0.876772
-2.032618 -9.799495 -0.875592
-2.000220 -9.808557 -0.875798
-1.968271 -9.819939 -0.876220
-1.932938 -9.814311 -0.875134
-1.900211 -9.821715 -0.875222
-1.860981 -9.794930 -0.872274
-1.828659 -9.803953 -0.872526
-1.796812 -9.815678 -0.873029
-1.760730 -9.804039 -0.871464
-1.727526 -9.808052 -0.871301
-1.691252 -9.794220 -0.869563
-1.659002 -9.803369 -0.869877
-1.627228 -9.815533 -0.870467
-1.590235 -9.795840 -0.868243
-1.559165 -9.812328 -0.869236
-1.523639 -9.800664 -0.867746
-1.491939 -9.813397 -0.868425
-1.454519 -9.788003 -0.865741
-1.420503 -9.784623 -0.865016
-1.390494 -9.809121 -0.866765
-1.356963 -9.809135 -0.866360
-1.321345 -9.793455 -0.864578
-1.289353 -9.804301 -0.865149
-1.254488 -9.793066 -0.863782
-1.222056 -9.800501 -0.864072
-1.187735 -9.792548 -0.863015
-1.155758 -9.803792 -0.863659
-1.123589 -9.813792 -0.864203
-1.089324 -9.805308 -0.863130
-1.055333 -9.798601 -0.862223
-1.022867 -9.805856 -0.862555
-0.989271 -9.802159 -0.861933
-0.956184 -9.803200 -0.861738
-0.923406 -9.807370 -0.861827
-0.890454 -9.809694 -0.861764
-0.856996 -9.806185 -0.861199
-0.823542 -9.802205 -0.860602
-0.790336 -9.800741 -0.860236
-0.757395 -9.802349 -0.860149
-0.723333 -9.788700 -0.858734
-0.690539 -9.791490 -0.858771
-0.658979 -9.812701 -0.860433
-0.624847 -9.795598 -0.858744
-0.592099 -9.799273 -0.858888
-0.558522 -9.788608 -0.857784
-0.526549 -9.806241 -0.859170
-0.493276 -9.800182 -0.858489
-0.459858 -9.789911 -0.857449
-0.428338 -9.821365 -0.860074
-0.394406 -9.797892 -0.857897
-0.361924 -9.809185 -0.858775
-0.328825 -9.804148 -0.858233
-0.295605 -9.793691 -0.857226
-0.262955 -9.801630 -0.857839
-0.230259 -9.809639 -0.858467
-0.197192 -9.801652 -0.857706
-0.164341 -9.803033 -0.857774
-0.131353 -9.794572 -0.856990
-0.098711 -9.814729 -0.858720
-0.065659 -9.793369 -0.856827
-0.032834 -9.796695 -0.857103
0.000013 -9.806650 -0.857969
0.032894 -9.806869 -0.857993
0.065689 -9.794052 -0.856887
0.098581 -9.799199 -0.857361
0.131475 -9.801788 -0.857621
0.164571 -9.815152 -0.858834
0.197184 -9.799958 -0.857558
0.229940 -9.794959 -0.857183
0.262863 -9.797232 -0.857454
0.295669 -9.794949 -0.857336
0.328663 -9.798516 -0.857740
0.361883 -9.807372 -0.858616
0.394390 -9.796841 -0.857805
0.427417 -9.799643 -0.858171
0.459572 -9.783266 -0.856867
0.493070 -9.795575 -0.858086
0.526491 -9.804684 -0.859033
0.559070 -9.797750 -0.858585
0.591742 -9.792930 -0.858332
0.624733 -9.793403 -0.858552
0.657992 -9.797622 -0.859110
0.691550 -9.805457 -0.859996
0.724693 -9.806746 -0.860317
0.756485 -9.790233 -0.859086
0.790529 -9.802809 -0.860418
0.821811 -9.781294 -0.858766
0.855157 -9.784840 -0.859324
0.889330 -9.797022 -0.860651
0.921628 -9.788200 -0.860143
0.955547 -9.796403 -0.861140
0.988549 -9.794745 -0.861281
1.020325 -9.781234 -0.860389
1.054990 -9.795171 -0.861921
1.088187 -9.794833 -0.862208
1.120815 -9.789330 -0.862049
1.155226 -9.799051 -0.863242
1.187168 -9.787652 -0.862583
1.221741 -9.797765 -0.863831
1.254531 -9.793199 -0.863794
1.288200 -9.795336 -0.864359
1.323715 -9.810827 -0.866112
1.353051 -9.780668 -0.863846
1.387760 -9.789646 -0.865045
1.424092 -9.809161 -0.867186
1.456446 -9.800794 -0.866873
1.490127 -9.801308 -0.867356
1.522205 -9.791265 -0.866914
1.557243 -9.800065 -0.868150
1.592834 -9.811683 -0.869648
1.623785 -9.794606 -0.868612
1.656470 -9.788248 -0.868536
1.689587 -9.784420 -0.868694
1.725879 -9.798552 -0.870457
1.762406 -9.813224 -0.872281
1.794735 -9.804180 -0.872007
1.828768 -9.804392 -0.872566
1.858084 -9.779541 -0.870904
1.894154 -9.790267 -0.872420
1.929115 -9.794765 -0.873392
1.964642 -9.801701 -0.874593
1.998745 -9.801191 -0.875140
2.033457 -9.803409 -0.875942
2.069110 -9.809792 -0.877128
2.100025 -9.793640 -0.876308
2.137196 -9.806489 -0.878094
2.167686 -9.788532 -0.877132
2.204929 -9.800926 -0.878900
2.235446 -9.783278 -0.877985
2.274695 -9.803568 -0.880485
2.306823 -9.792796 -0.880207
2.345434 -9.809222 -0.882385
2.376344 -9.793206 -0.881657
2.413078 -9.801073 -0.883088
2.446263 -9.794279 -0.883210
2.478248 -9.782705 -0.882911
2.515711 -9.792551 -0.884556
2.553947 -9.804857 -0.886436
2.585253 -9.790356 -0.885903
2.622910 -9.799740 -0.887543
2.658121 -9.799625 -0.888335
2.691356 -9.792090 -0.888465
2.726995 -9.793151 -0.889386
2.759523 -9.782921 -0.889292
2.798181 -9.794172 -0.891163
2.832277 -9.789137 -0.891563
2.870010 -9.796406 -0.893097
2.902733 -9.786369 -0.893064
2.944540 -9.806594 -0.895806
2.977246 -9.796150 -0.895759
3.010324 -9.786925 -0.895833
3.047226 -9.789967 -0.897041
3.087988 -9.804953 -0.899358
3.123266 -9.802143 -0.900056
3.155736 -9.790446 -0.899948
3.188630 -9.780076 -0.899973
3.233719 -9.806681 -0.903414
3.265991 -9.794015 -0.903250
3.305248 -9.802100 -0.905013
3.340157 -9.797015 -0.905572
3.379267 -9.803985 -0.907259
