# This PCD file was generated using the MATLAB® pcwrite function
# from Computer Vision Toolbox®.
# .PCD v.7 - Point Cloud Data file format
VERSION .7
FIELDS x y z
SIZE 4 4 4
TYPE F F F
COUNT 1 1 1
WIDTH 1664
HEIGHT 1
VIEWPOINT 0 0 0 1 0 0 0
POINTS 1664
DATA ascii
-4.327478 9.982806 0.951912
-4.366987 9.982099 0.953235
-4.408111 9.984797 0.954899
-4.454683 9.999411 0.957719
-4.493766 9.996837 0.958911
-4.531557 9.991191 0.959821
-4.575733 9.999332 0.962071
-4.612977 9.992043 0.962853
-4.649375 9.982795 0.963458
-4.701991 10.007957 0.967403
-4.737072 9.995413 0.967720
-4.777688 9.994387 0.969166
-4.815794 9.987902 0.970098
-4.861437 9.996751 0.972535
-4.899438 9.989593 0.973431
-4.937327 9.982053 0.974304
-4.980590 9.985136 0.976229
-5.018872 9.977987 0.977170
-5.063698 9.983580 0.979375
-5.113796 9.999107 0.982575
-5.155142 9.997129 0.984073
-5.194181 9.990462 0.985126
-5.237735 9.992235 0.987027
-5.275855 9.983411 0.987897
-5.326382 9.997732 0.991076
-5.368731 9.996312 0.992714
-5.409750 9.992170 0.994098
-5.447461 9.981745 0.994872
-5.499799 9.997787 0.998303
-5.543178 9.997124 1.000087
-5.587040 9.997046 1.001948
-5.627225 9.990150 1.003142
-5.668570 9.985109 1.004539
-5.723521 10.003634 1.008327
-5.753263 9.977856 1.007668
-5.810721 9.999877 1.011853
-5.855112 9.998945 1.013740
-5.888734 9.979480 1.013762
-5.943990 9.996390 1.017499
-5.983949 9.987216 1.018602
-6.037716 10.000747 1.022040
-6.078222 9.991969 1.023220
-6.131065 10.003147 1.026464
-6.168171 9.988367 1.027064
-6.213945 9.987432 1.029104
-6.258469 9.984205 1.030928
-6.312326 9.995496 1.034274
-6.360261 9.997000 1.036630
-6.398879 9.983631 1.037463
-6.456998 10.000347 1.041443
-6.497481 9.989388 1.042565
-6.542385 9.985020 1.044393
-6.599811 9.999367 1.048202
-6.640553 9.988092 1.049348
-6.679678 9.974245 1.050240
-6.737169 9.987500 1.054008
-6.788159 9.990673 1.056739
-6.831734 9.982640 1.058306
-6.884126 9.987185 1.061229
-6.933046 9.986337 1.063603
-6.987847 9.993579 1.066864
-7.038799 9.994922 1.069520
-7.077698 9.978918 1.070341
-7.136889 9.991214 1.074221
-7.179741 9.980286 1.075628
-7.239288 9.992218 1.079524
-7.282526 9.981290 1.080975
-7.338497 9.987501 1.084306
-7.387910 9.984421 1.086655
-7.429867 9.971031 1.087903
-7.497279 9.991405 1.092862
-7.545948 9.986344 1.095070
-7.598436 9.986022 1.097822
-7.650170 9.984367 1.100454
-7.706671 9.988560 1.103758
-7.756591 9.983869 1.106107
-7.804476 9.976283 1.108159
-7.865799 9.985502 1.112106
-7.917311 9.981864 1.114651
-7.970285 9.979743 1.117392
-8.031813 9.987923 1.121317
-8.080609 9.979900 1.123452
-8.149802 9.996637 1.128405
-8.190566 9.978141 1.129411
-8.247796 9.979445 1.132682
-8.322701 10.001598 1.138358
-8.369270 9.989252 1.140140
-8.429656 9.993073 1.143795
-8.480364 9.985065 1.146127
-8.536894 9.983590 1.149237
-8.601881 9.991572 1.153469
-8.654678 9.984996 1.156053
-8.708123 9.978858 1.158716
-8.771906 9.984178 1.162742
-8.843636 9.998014 1.167800
-8.892255 9.985316 1.169793
-8.948596 9.981002 1.172796
-9.016920 9.989618 1.177354
-9.080317 9.992293 1.181251
-9.130916 9.980536 1.183474
-9.189938 9.977671 1.186781
-9.258717 9.984955 1.191333
-9.327487 9.991717 1.195864
-9.380429 9.981132 1.198355
-9.438383 9.975563 1.201479
-9.513486 9.987651 1.206770
-9.578106 9.988219 1.210712
-9.642982 9.988618 1.214672
-9.698809 9.979269 1.217483
-9.765704 9.980924 1.221673
-9.826440 9.975867 1.225080
-9.902155 9.985545 1.230338
-9.965162 9.981922 1.234002
-10.026603 9.976343 1.237461
-10.098434 9.980660 1.242189
-10.169486 9.983703 1.246804
-10.234228 9.980099 1.250633
-10.303079 9.980064 1.254950
-10.372734 9.980346 1.259351
-10.454567 9.991796 1.265212
-10.513455 9.980845 1.268282
-10.583388 9.979985 1.272675
-10.652102 9.977521 1.276908
-10.736481 9.989187 1.283000
-10.805288 9.985826 1.287215
-10.877144 9.984825 1.291779
-10.940045 9.975185 1.295270
-11.012105 9.973477 1.299836
-11.081762 9.969138 1.304105
-11.167642 9.978853 1.310267
-11.249589 9.984447 1.315946
-11.318814 9.978244 1.320123
-11.391987 9.975071 1.324749
-11.475711 9.980604 1.330586
-11.565267 9.990583 1.337079
-11.632193 9.980490 1.340940
-11.709440 9.978802 1.345981
-11.791777 9.980915 1.351591
-11.872387 9.981014 1.356987
-11.948966 9.977208 1.361909
-12.022425 9.970324 1.366463
-12.112255 9.976470 1.372864
-12.199617 9.979964 1.378966
-12.295807 9.990026 1.386045
-12.375990 9.986474 1.391301
-12.449002 9.976658 1.395741
-12.536392 9.977850 1.401780
-12.625735 9.979995 1.408020
-12.708837 9.976632 1.413550
-12.803432 9.981691 1.420341
-12.891150 9.980765 1.426351
-12.989495 9.987431 1.433520
-13.077568 9.985559 1.439536
-13.159625 9.978547 1.444878
-13.243509 9.972397 1.450409
-13.340998 9.975890 1.457415
-13.434126 9.975476 1.463926
-13.532808 9.978537 1.471026
-13.633299 9.982244 1.478303
-13.724493 9.978505 1.484555
-13.819782 9.977129 1.491235
-13.910169 9.971607 1.497373
-14.020584 9.979765 1.505648
-14.117127 9.977340 1.512415
-14.111868 9.902843 1.508286
-14.118533 9.837038 1.505465
-14.115911 9.765070 1.501685
-14.110417 9.691482 1.497636
-14.119896 9.628478 1.495207
-14.115729 9.556459 1.491364
-14.114196 9.486566 1.487834
-14.132589 9.430292 1.486431
-14.132863 9.362145 1.483150
-14.101728 9.273643 1.476611
-14.119769 9.217840 1.475256
-14.124823 9.153746 1.472569
-14.114866 9.080238 1.468349
-14.120930 9.017344 1.465826
-14.103887 8.940032 1.460938
-14.114160 8.880348 1.458909
-14.110940 8.812421 1.455514
-14.117504 8.750863 1.453157
-14.118541 8.686117 1.450258
-14.122797 8.623596 1.447717
-14.104332 8.547532 1.442878
-14.118011 8.491233 1.441357
-14.112859 8.423829 1.437939
-14.123666 8.366182 1.436174
-14.116883 8.298352 1.432647
-14.109574 8.230528 1.429097
-14.114820 8.170284 1.426846
-14.108596 8.103649 1.423462
-14.113115 8.043437 1.421189
-14.104797 7.976163 1.417650
-14.110087 7.916836 1.415506
-14.102372 7.850456 1.412084
-14.115624 7.795956 1.410786
-14.115481 7.734228 1.408172
-14.123755 7.677303 1.406421
-14.102682 7.604704 1.401776
-14.114443 7.550072 1.400421
-14.109101 7.486483 1.397393
-14.118040 7.430671 1.395802
-14.119242 7.370956 1.393470
-14.102296 7.302046 1.389374
-14.108264 7.245256 1.387561
-14.103107 7.182954 1.384677
-14.109271 7.126618 1.382928
-14.111152 7.068285 1.380782
-14.097878 7.002608 1.377178
-14.108364 6.948941 1.375919
-14.093854 6.883173 1.372245
-14.107251 6.831231 1.371312
-14.110405 6.774449 1.369403
-14.113952 6.718017 1.367553
-14.112461 6.659363 1.365238
-14.116128 6.603317 1.363443
-14.116975 6.546114 1.361398
-14.111345 6.486106 1.358750
-14.122687 6.434053 1.357757
-14.118408 6.375030 1.355283
-14.118547 6.318190 1.353255
-14.110148 6.257733 1.350432
-14.110569 6.201388 1.348474
-14.107808 6.143821 1.346234
-14.113913 6.090265 1.344861
-14.110179 6.032617 1.342570
-14.103590 5.973950 1.340030
-14.103212 5.918099 1.338101
-14.119708 5.869422 1.337792
-14.096827 5.804557 1.333772
-14.113221 5.756042 1.333490
-14.115882 5.702001 1.331928
-14.107574 5.643702 1.329351
-14.112426 5.590827 1.328034
-14.108590 5.534652 1.325920
-14.117946 5.483775 1.325063
-14.109985 5.426307 1.322601
-14.109110 5.371739 1.320824
-14.129003 5.325143 1.321007
-14.106608 5.262755 1.317256
-14.091026 5.203188 1.314165
-14.107125 5.155452 1.314047
-14.110510 5.103126 1.312761
-14.119610 5.052949 1.312024
-14.102231 4.993456 1.308846
-14.104071 4.940953 1.307472
-14.100028 4.886522 1.305571
-14.119713 4.840379 1.305883
-14.108974 4.783894 1.303399
-14.100911 4.728507 1.301183
-14.100094 4.675700 1.299653
-14.102831 4.624182 1.298469
-14.113445 4.575313 1.298027
-14.115104 4.523608 1.296777
-14.106357 4.468707 1.294590
-14.109732 4.417776 1.293533
-14.101912 4.363466 1.291468
-14.109181 4.313934 1.290801
-14.120602 4.265709 1.290530
-14.109761 4.210862 1.288242
-14.118982 4.162110 1.287803
-14.101409 4.105592 1.284937
-14.115357 4.058365 1.284961
-14.104286 4.004033 1.282724
-14.104486 3.953037 1.281529
-14.105678 3.902410 1.280442
-14.106651 3.851810 1.279351
-14.110762 3.802140 1.278560
-14.108023 3.750712 1.277165
-14.120179 3.703300 1.277135
-14.110134 3.650147 1.275112
-14.117539 3.601605 1.274683
-14.115689 3.550768 1.273434
-14.093631 3.495018 1.270379
-14.088659 3.443685 1.268883
-14.102699 3.397049 1.269115
-14.101326 3.346736 1.267974
-14.107958 3.298384 1.267569
-14.117871 3.250818 1.267473
-14.113637 3.200052 1.266123
-14.112872 3.150166 1.265100
-14.095889 3.096797 1.262639
-14.102777 3.048780 1.262334
-14.105485 2.999898 1.261669
-14.100203 2.949395 1.260305
-14.102356 2.900529 1.259621
-14.111502 2.853129 1.259576
-14.114772 2.804564 1.259022
-14.097492 2.752031 1.256650
-14.108972 2.705197 1.256858
-14.097776 2.654077 1.255061
-14.104212 2.606354 1.254849
-14.106380 2.557873 1.254272
-14.110011 2.509697 1.253839
-14.097032 2.458658 1.251946
-14.116891 2.413378 1.252984
-14.097494 2.361442 1.250553
-14.092374 2.312037 1.249404
-14.106182 2.265760 1.249948
-14.099444 2.216212 1.248685
-14.111650 2.169673 1.249115
-14.106030 2.120420 1.247981
-14.119587 2.074072 1.248558
-14.108902 2.024201 1.247006
-14.105262 1.975436 1.246092
-14.114632 1.928519 1.246342
-14.111673 1.879939 1.245517
-14.104971 1.830937 1.244376
-14.099416 1.782167 1.243352
-14.100001 1.734232 1.242884
-14.102033 1.686504 1.242558
-14.093569 1.637582 1.241321
-14.089030 1.589197 1.240445
-14.116269 1.544356 1.242381
-14.091810 1.493885 1.239780
-14.109342 1.447923 1.240888
-14.111359 1.400335 1.240646
-14.087749 1.350309 1.238165
-14.098783 1.303677 1.238744
-14.104155 1.256495 1.238839
-14.113331 1.209632 1.239282
-14.103130 1.161138 1.238037
-14.100327 1.113324 1.237456
-14.124807 1.067616 1.239284
-14.099414 1.018166 1.236749
-14.099430 0.970659 1.236458
-14.090681 0.922600 1.235413
-14.092777 0.875295 1.235332
-14.080868 0.827172 1.234038
-14.096128 0.780653 1.235139
-14.103181 0.733622 1.235535
-14.087746 0.685465 1.233974
-14.096066 0.638504 1.234509
-14.112059 0.591824 1.235729
-14.107772 0.544266 1.235186
-14.099400 0.496606 1.234301
-14.098855 0.449263 1.234114
-14.104836 0.402119 1.234513
-14.110670 0.354941 1.234912
-14.119936 0.307806 1.235626
-14.093950 0.259966 1.233269
-14.106197 0.212883 1.234271
-14.103012 0.165542 1.233937
-14.108166 0.118295 1.234346
-14.100456 0.070952 1.233644
-14.090460 0.023659 1.232755
-14.088597 0.000037 1.232591
-14.088617 -0.023656 1.729864
-14.101335 -0.070957 1.731445
-14.091338 -0.118154 1.730257
-14.083508 -0.165313 1.729354
-14.110791 -0.212953 1.732782
-14.113660 -0.260330 1.733232
-14.086018 -0.307067 1.729954
-14.100551 -0.354686 1.731875
-14.090988 -0.401725 1.730856
-14.101748 -0.449355 1.732353
-14.087868 -0.496200 1.730843
-14.109905 -0.544349 1.733765
-14.108459 -0.591673 1.733821
-14.101024 -0.638729 1.733161
-14.090345 -0.685592 1.732121
-14.091227 -0.733000 1.732522
-14.100384 -0.780888 1.733960
-14.096344 -0.828081 1.733795
-14.105584 -0.876090 1.735283
-14.097144 -0.923024 1.734615
-14.115968 -0.971798 1.737323
-14.098808 -1.018122 1.735621
-14.087396 -1.064789 1.734646
-14.103677 -1.113589 1.737101
-14.101177 -1.160978 1.737263
-14.094368 -1.208007 1.736913
-14.092807 -1.255484 1.737229
-14.111947 -1.304894 1.740119
-14.089293 -1.350457 1.737874
-14.100712 -1.399278 1.739851
-14.101170 -1.447084 1.740496
-14.092642 -1.493973 1.740052
-14.092667 -1.541774 1.740684
-14.098086 -1.590219 1.742002
-14.099303 -1.638248 1.742821
-14.093909 -1.685533 1.742843
-14.094712 -1.733581 1.743652
-14.102884 -1.782606 1.745392
-14.101828 -1.830529 1.746011
-14.096805 -1.877959 1.746159
-14.115232 -1.928601 1.749233
-14.081017 -1.972041 1.745802
-14.098299 -2.022680 1.748776
-14.092569 -2.070104 1.748916
-14.089906 -2.117997 1.749457
-14.088018 -2.166039 1.750115
-14.105257 -2.217125 1.753170
-14.104010 -2.265411 1.753949
-14.106377 -2.314334 1.755198
-14.090495 -2.360270 1.754197
-14.092530 -2.409214 1.755446
-14.092633 -2.457891 1.756476
-14.090055 -2.506148 1.757192
-14.089828 -2.554872 1.758222
-14.092893 -2.604262 1.759684
-14.083275 -2.651346 1.759583
-14.093144 -2.702162 1.761938
-14.108980 -2.754274 1.765063
-14.095530 -2.800741 1.764545
-14.099219 -2.850646 1.766193
-14.095046 -2.899025 1.766878
-14.091335 -2.947541 1.767642
-14.088099 -2.996200 1.768486
-14.085967 -3.045146 1.769490
-14.094448 -3.096480 1.771850
-14.082032 -3.143282 1.771604
-14.101243 -3.197242 1.775359
-14.084625 -3.243163 1.774626
-14.104988 -3.297690 1.778575
-14.095695 -3.345400 1.778808
-14.095819 -3.395392 1.780250
-14.085611 -3.442940 1.780409
-14.085801 -3.493077 1.781903
-14.102797 -3.547525 1.785547
-14.096630 -3.596271 1.786283
-14.084727 -3.643574 1.786313
-14.094572 -3.696584 1.789123
-14.088232 -3.745450 1.789903
-14.083987 -3.794926 1.790970
-14.099146 -3.849760 1.794529
-14.091626 -3.898523 1.795225
-14.088426 -3.948536 1.796494
-14.105766 -4.004453 1.800407
-14.090304 -4.051162 1.800157
-14.093383 -4.103255 1.802298
-14.087598 -4.152858 1.803329
-14.093089 -4.205886 1.805827
-14.073712 -4.251544 1.805160
-14.079860 -4.304969 1.807790
-14.085443 -4.358370 1.810373
-14.093914 -4.412824 1.813353
-14.094115 -4.464829 1.815295
-14.097199 -4.517870 1.817633
-14.095731 -4.569570 1.819408
-14.099017 -4.622932 1.821823
-14.097497 -4.674839 1.823642
-14.101238 -4.728616 1.826166
-14.090014 -4.777465 1.826777
-14.090459 -4.830350 1.828924
-14.102762 -4.887470 1.832638
-14.094249 -4.937512 1.833672
-14.089875 -4.989081 1.835269
-14.087328 -5.041397 1.837129
-14.092803 -5.096722 1.840061
-14.080045 -5.145555 1.840637
-14.101550 -5.207075 1.845721
-14.104486 -5.261963 1.848404
-14.089179 -5.310133 1.848720
-14.094694 -5.366251 1.851795
-14.089996 -5.418620 1.853554
-14.099739 -5.476703 1.857241
-14.082978 -5.524605 1.857462
-14.094110 -5.583571 1.861389
-14.093231 -5.637964 1.863759
-14.085499 -5.689728 1.865249
-14.095387 -5.748768 1.869100
-14.083224 -5.798956 1.870055
-14.102747 -5.862372 1.875247
-14.108380 -5.920268 1.878625
-14.091386 -5.968781 1.879016
-14.099388 -6.028004 1.882768
-14.078473 -6.074973 1.882684
-14.094716 -6.138119 1.887598
-14.099011 -6.196309 1.890945
-14.101793 -6.254028 1.894119
-14.081901 -6.301790 1.894275
-14.087679 -6.361154 1.897910
-14.088607 -6.418527 1.900924
-14.089942 -6.476269 1.904023
-14.081477 -6.529654 1.905827
-14.088978 -6.590617 1.909822
-14.088503 -6.648057 1.912768
-14.082639 -6.703113 1.915013
-14.082599 -6.761100 1.918079
-14.095725 -6.825649 1.922973
-14.092043 -6.882288 1.925608
-14.089664 -6.939731 1.928452
-14.094769 -7.001064 1.932352
-14.101073 -7.063237 1.936452
-14.086147 -7.114938 1.937668
-14.098770 -7.180745 1.942705
-14.093072 -7.237453 1.945253
-14.086025 -7.293622 1.947644
-14.082421 -7.351734 1.950543
-14.089205 -7.415494 1.954916
-14.088986 -7.475810 1.958352
-14.080904 -7.532132 1.960728
-14.106495 -7.606761 1.967832
-14.087315 -7.657495 1.968727
-14.081668 -7.715700 1.971542
-14.076792 -7.774508 1.974497
-14.088442 -7.842701 1.979809
-14.086679 -7.903702 1.983274
-14.087869 -7.966590 1.987191
-14.091406 -8.031064 1.991477
-14.081523 -8.088099 1.993901
-14.095443 -8.159067 1.999735
-14.094055 -8.221475 2.003437
-14.092464 -8.283998 2.007148
-14.080558 -8.340648 2.009424
-14.084774 -8.407065 2.014037
-14.075030 -8.465383 2.016691
-14.081398 -8.533633 2.021691
-14.092561 -8.605133 2.027425
-14.085130 -8.665562 2.030524
-14.086361 -8.731559 2.034910
-14.086332 -8.797053 2.039156
-14.084279 -8.861548 2.043148
-14.086447 -8.928977 2.047794
-14.082522 -8.992818 2.051595
-14.079529 -9.057506 2.055572
-14.082119 -9.126071 2.060405
-14.081295 -9.192723 2.064783
-14.087222 -9.264102 2.070195
-14.074291 -9.323345 2.072877
-14.079802 -9.395069 2.078316
-14.079808 -9.463453 2.082989
-14.080710 -9.532752 2.087839
-14.082872 -9.603231 2.092922
-14.075937 -9.667800 2.096697
-13.996862 -9.822139 2.099529
-13.899331 -9.823411 2.089828
-13.806828 -9.827615 2.080862
-13.709444 -9.827717 2.071139
-13.597868 -9.816919 2.059244
-13.508871 -9.821734 2.050742
-13.410948 -9.819441 2.040863
-13.327264 -9.826976 2.033131
-13.242845 -9.833441 2.025270
-13.129251 -9.817554 2.012921
-13.044698 -9.822691 2.004996
-12.950200 -9.819746 1.995520
-12.862266 -9.821162 1.987033
-12.772592 -9.820657 1.978256
-12.676374 -9.814480 1.968439
-12.594771 -9.819016 1.960868
-12.508263 -9.819178 1.952514
-12.424632 -9.821033 1.944589
-12.342346 -9.823406 1.936854
-12.257115 -9.822880 1.928637
-12.172228 -9.822054 1.920451
-12.087641 -9.820896 1.912290
-11.994473 -9.812144 1.902744
-11.917054 -9.815690 1.895673
-11.835802 -9.815556 1.887972
-11.762428 -9.821452 1.881510
-11.676771 -9.816563 1.873063
-11.597536 -9.816504 1.865622
-11.526862 -9.823209 1.859541
-11.448092 -9.822530 1.852136
-11.359357 -9.812709 1.843092
-11.291141 -9.820081 1.837356
-11.219453 -9.823997 1.831040
-11.144164 -9.824279 1.824118
-11.051054 -9.808239 1.814250
-10.976717 -9.808252 1.807435
-10.921837 -9.825269 1.803813
-10.837845 -9.815653 1.795366
-10.772311 -9.822245 1.789955
-10.714930 -9.835918 1.785890
-10.621494 -9.815971 1.775793
-10.547216 -9.813096 1.768865
-10.489874 -9.825566 1.764763
-10.414797 -9.821006 1.757662
-10.328889 -9.805629 1.748703
-10.258991 -9.804877 1.742425
-10.203566 -9.817575 1.738592
-10.137831 -9.819997 1.732992
-10.067162 -9.817181 1.726528
-10.014515 -9.831563 1.723143
-9.934696 -9.818831 1.715064
-9.867964 -9.818499 1.709217
-9.807839 -9.824334 1.704499
-9.734617 -9.816596 1.697484
-9.669719 -9.816764 1.691897
-9.601262 -9.812858 1.685666
-9.544502 -9.820501 1.681473
-9.476582 -9.816254 1.675296
-9.405591 -9.808318 1.668550
-9.347878 -9.813788 1.664140
-9.287943 -9.816561 1.659320
-9.227073 -9.817954 1.654317
-9.159265 -9.811517 1.648048
-9.092258 -9.805441 1.641898
-9.040522 -9.815448 1.638489
-8.976754 -9.812030 1.632885
-8.926314 -9.822824 1.629691
-8.856727 -9.812144 1.622984
-8.799112 -9.814273 1.618447
-8.745173 -9.820154 1.614572
-8.683309 -9.816760 1.609219
-8.624704 -9.816632 1.604448
-8.556782 -9.805431 1.597920
-8.505125 -9.812453 1.594408
-8.443221 -9.807281 1.588959
-8.393004 -9.815316 1.585692
-8.333498 -9.812140 1.580657
-8.286597 -9.823482 1.577999
-8.214922 -9.805028 1.570601
-8.167797 -9.815446 1.567875
-8.113600 -9.817075 1.563781
-8.057364 -9.815866 1.559276
-8.000371 -9.813343 1.554606
-7.944037 -9.811228 1.550042
-7.897126 -9.820434 1.547305
-7.842109 -9.819251 1.542967
-7.790675 -9.822206 1.539318
-7.722334 -9.803376 1.532301
-7.676685 -9.812930 1.529763
-7.615195 -9.801871 1.524050
-7.572512 -9.814677 1.522085
-7.516891 -9.810421 1.517508
-7.470261 -9.817571 1.514731
-7.421185 -9.821233 1.511448
-7.366666 -9.817343 1.507040
-7.306817 -9.805896 1.501514
-7.273835 -9.830254 1.501501
-7.212147 -9.815542 1.495552
-7.160993 -9.814718 1.491760
-7.107820 -9.810756 1.487527
-7.066730 -9.823193 1.485812
-7.003369 -9.804294 1.479393
-6.953822 -9.804264 1.475862
-6.908270 -9.809573 1.473167
-6.862335 -9.814080 1.470380
-6.815839 -9.817512 1.467462
-6.765290 -9.814783 1.463655
-6.706422 -9.799533 1.458020
-6.657479 -9.798342 1.454513
-6.617947 -9.810760 1.453055
-6.565073 -9.803114 1.448654
-6.513750 -9.797368 1.444569
-6.471093 -9.804347 1.442391
-6.425011 -9.805883 1.439440
-6.384202 -9.815229 1.437662
-6.337084 -9.814630 1.434454
-6.297782 -9.825898 1.433006
-6.247165 -9.819236 1.428972
-6.196396 -9.811923 1.424876
-6.147151 -9.806618 1.421105
-6.109961 -9.820300 1.420111
-6.062900 -9.817897 1.416816
-6.011934 -9.808779 1.412583
-5.971772 -9.816977 1.410873
-5.929240 -9.821069 1.408596
-5.875664 -9.806488 1.403671
-5.836924 -9.816331 1.402271
-5.796959 -9.823950 1.400575
-5.741335 -9.804646 1.395071
-5.703749 -9.815784 1.393926
-5.658046 -9.812722 1.390790
-5.612762 -9.810050 1.387736
-5.568800 -9.809366 1.384990
-5.526571 -9.811456 1.382661
-5.478363 -9.802588 1.378815
-5.436266 -9.804310 1.376486
-5.400376 -9.817050 1.375725
-5.350113 -9.803369 1.371286
-5.311307 -9.810341 1.369763
-5.270828 -9.814023 1.367802
-5.221622 -9.801098 1.363553
-5.180482 -9.802938 1.361385
-5.135302 -9.796819 1.358136
-5.098312 -9.806069 1.357041
-5.059560 -9.811770 1.355475
-5.018496 -9.812766 1.353280
-4.975520 -9.809728 1.350553
-4.930866 -9.803022 1.347346
-4.887908 -9.799326 1.344578
-4.846760 -9.798949 1.342289
-4.815767 -9.818994 1.342816
-4.771964 -9.812764 1.339768
-4.729337 -9.808592 1.337026
-4.685215 -9.800943 1.333835
-4.649629 -9.810904 1.333061
-4.609815 -9.811764 1.331070
-4.574691 -9.822440 1.330431
-4.526406 -9.804524 1.325941
-4.484125 -9.799139 1.323172
-4.443655 -9.797385 1.320916
-4.409819 -9.810088 1.320628
-4.371888 -9.813561 1.319115
-4.328039 -9.803426 1.315794
-4.288257 -9.802137 1.313684
-4.260131 -9.827447 1.315154
-4.210148 -9.802073 1.309862
-4.175214 -9.811325 1.309221
-4.141111 -9.822462 1.308847
-4.090997 -9.795208 1.303380
-4.059919 -9.813189 1.303954
-4.022298 -9.815286 1.302433
-3.980399 -9.806622 1.299505
-3.947909 -9.820938 1.299641
-3.901983 -9.801525 1.295334
-3.864115 -9.801910 1.293665
-3.826165 -9.801836 1.291955
-3.792522 -9.812649 1.291697
-3.755637 -9.814952 1.290335
-3.719513 -9.819053 1.289228
-3.677452 -9.807152 1.286039
-3.641619 -9.811530 1.285005
-3.604794 -9.813044 1.283613
-3.559799 -9.791864 1.279274
-3.533372 -9.821599 1.281604
-3.490541 -9.805632 1.277986
-3.457591 -9.817127 1.277966
-3.415817 -9.803298 1.274668
-3.383472 -9.816270 1.274872
-3.346530 -9.815793 1.273346
-3.308739 -9.812541 1.271478
-3.271928 -9.811905 1.269967
-3.236306 -9.814614 1.268906
-3.196223 -9.803453 1.266070
-3.164907 -9.818989 1.266699
-3.125787 -9.810145 1.264199
-3.089398 -9.809522 1.262777
-3.052047 -9.805546 1.260941
-3.015686 -9.804451 1.259493
-2.983052 -9.815347 1.259600
-2.942859 -9.801090 1.256498
-2.909742 -9.810094 1.256394
-2.870076 -9.796726 1.253443
-2.839160 -9.813025 1.254303
-2.799855 -9.800126 1.251447
-2.765882 -9.805561 1.250950
-2.728085 -9.797164 1.248705
-2.698085 -9.816677 1.250032
-2.661387 -9.811770 1.248264
-2.624561 -9.806012 1.246405
-2.588684 -9.803457 1.244970
-2.554515 -9.807146 1.244344
-2.515663 -9.792473 1.241405
-2.484338 -9.806857 1.242165
-2.446671 -9.796023 1.239747
-2.413962 -9.804776 1.239823
-2.378391 -9.801752 1.238426
-2.344512 -9.805481 1.237897
-2.312286 -9.816100 1.238252
-2.277089 -9.814006 1.237017
-2.241404 -9.809471 1.235492
-2.204045 -9.797121 1.232998
-2.171678 -9.806681 1.233278
-2.139515 -9.817255 1.233699
-2.103000 -9.807639 1.231598
-2.068776 -9.808337 1.230807
-2.030205 -9.787861 1.227377
-1.999761 -9.806304 1.228842
-1.965177 -9.804502 1.227784
-1.933122 -9.815244 1.228310
-1.896986 -9.805044 1.226231
-1.862531 -9.803088 1.225198
-1.827949 -9.800145 1.224058
-1.795318 -9.807516 1.224220
-1.759191 -9.795469 1.221973
-1.725080 -9.794168 1.221082
-1.694246 -9.811556 1.222535
-1.659515 -9.806396 1.221192
-1.626110 -9.808787 1.220804
-1.590595 -9.798057 1.218797
-1.556528 -9.795737 1.217853
-1.523717 -9.801163 1.217885
-1.491132 -9.808093 1.218119
-1.456878 -9.803877 1.216981
-1.423112 -9.802596 1.216223
-1.388732 -9.796693 1.214906
-1.354614 -9.792157 1.213774
-1.322371 -9.801058 1.214321
-1.289092 -9.802315 1.213934
-1.255836 -9.803593 1.213564
-1.221551 -9.796452 1.212166
-1.189397 -9.806249 1.212878
-1.155318 -9.800056 1.211626
-1.123584 -9.813745 1.212846
-1.089493 -9.806827 1.211533
-1.056331 -9.807867 1.211217
-1.022766 -9.804883 1.210418
-0.988883 -9.798311 1.209191
-0.956423 -9.805650 1.209694
-0.921816 -9.790484 1.207435
-0.889792 -9.802402 1.208530
-0.855620 -9.790443 1.206695
-0.824077 -9.808579 1.208583
-0.790326 -9.800620 1.207269
-0.758181 -9.812517 1.208415
-0.724894 -9.809824 1.207777
-0.690756 -9.794565 1.205607
-0.658771 -9.809602 1.207179
-0.625474 -9.805430 1.206401
-0.593138 -9.816470 1.207507
-0.558956 -9.796216 1.204779
-0.525161 -9.780390 1.202609
-0.494088 -9.816305 1.206815
-0.460283 -9.798973 1.204487
-0.427594 -9.804303 1.204960
-0.394510 -9.800467 1.204319
-0.361189 -9.789273 1.202788
-0.328719 -9.800983 1.204084
-0.295864 -9.802260 1.204113
-0.262671 -9.791059 1.202622
-0.230133 -9.804277 1.204144
-0.196956 -9.789920 1.202292
-0.164172 -9.792946 1.202590
-0.131512 -9.806482 1.204191
-0.098529 -9.796604 1.202931
-0.065716 -9.801894 1.203547
-0.032847 -9.800801 1.203392
0.000013 -9.813043 1.204888
0.032885 -9.804151 1.203803
0.065684 -9.793269 1.202487
0.098708 -9.811853 1.204803
0.131268 -9.786352 1.201719
0.164217 -9.794078 1.202729
0.197010 -9.791269 1.202458
0.229924 -9.794282 1.202916
0.263360 -9.815784 1.205659
0.295609 -9.792972 1.202972
0.328614 -9.797070 1.203604
0.362060 -9.812188 1.205603
0.394888 -9.809199 1.205392
0.427652 -9.805020 1.205048
0.460200 -9.796641 1.204201
0.493522 -9.804551 1.205370
0.525852 -9.792775 1.204132
0.558272 -9.783771 1.203248
0.591999 -9.797177 1.205135
0.625553 -9.806269 1.206504
0.657966 -9.797230 1.205657
0.691767 -9.808531 1.207326
0.723341 -9.788451 1.205146
0.756653 -9.792410 1.205939
0.789616 -9.791485 1.206144
0.825252 -9.822251 1.210268
0.856784 -9.803459 1.208300
0.890587 -9.810871 1.209575
0.922683 -9.799410 1.208536
0.955511 -9.796031 1.208508
0.988271 -9.791987 1.208411
1.021814 -9.795505 1.209261
1.054126 -9.787148 1.208659
1.089285 -9.804720 1.211273
1.121870 -9.798548 1.210968
1.155756 -9.803546 1.212058
1.187857 -9.793334 1.211281
1.222241 -9.801772 1.212825
1.253305 -9.783629 1.211093
1.288446 -9.797205 1.213302
1.321673 -9.795691 1.213656
1.354972 -9.794551 1.214071
1.389722 -9.803489 1.215750
1.421995 -9.794718 1.215246
1.455367 -9.793532 1.215698
1.488032 -9.787529 1.215565
1.526522 -9.819036 1.220107
1.557699 -9.802939 1.218749
1.589292 -9.789861 1.217779
1.621622 -9.781559 1.217415
1.658489 -9.800176 1.220418
1.691592 -9.796033 1.220601
1.725842 -9.798340 1.221603
1.761435 -9.807817 1.223514
1.794451 -9.802632 1.223611
1.827046 -9.795160 1.223436
1.859743 -9.788271 1.223347
1.895503 -9.797243 1.225256
1.931259 -9.805647 1.227110
1.963706 -9.797030 1.226848
1.997179 -9.793511 1.227239
2.031332 -9.793163 1.228042
2.064247 -9.786736 1.228097
2.101532 -9.800668 1.230723
2.133950 -9.791591 1.230475
2.168405 -9.791780 1.231405
2.204259 -9.797951 1.233104
2.236624 -9.788431 1.232842
2.279623 -9.824809 1.238380
2.307669 -9.796385 1.235765
2.342744 -9.797971 1.236949
2.374781 -9.786761 1.236532
2.412583 -9.799062 1.239102
2.448248 -9.802227 1.240533
2.480589 -9.791949 1.240278
2.519601 -9.807692 1.243335
2.552234 -9.798284 1.243220
2.588120 -9.801214 1.244686
2.622479 -9.798132 1.245404
2.657318 -9.796666 1.246343
2.689798 -9.786424 1.246180
2.730092 -9.804273 1.249612
2.767016 -9.809483 1.251451
2.799975 -9.800451 1.251490
2.838604 -9.811006 1.254046
2.870448 -9.797901 1.253594
2.905161 -9.794555 1.254405
2.938853 -9.787654 1.254776
2.980591 -9.807156 1.258550
3.014696 -9.801140 1.259068
3.050534 -9.800594 1.260305
3.084490 -9.793847 1.260760
3.120118 -9.792265 1.261896
3.157907 -9.797184 1.263887
3.194644 -9.798522 1.265435
3.226626 -9.785170 1.265100
3.265820 -9.793503 1.267586
3.300734 -9.788713 1.268391
3.339057 -9.793788 1.270493
3.376438 -9.795777 1.272212
3.410273 -9.787303 1.272589
3.447519 -9.788447 1.274234
3.488083 -9.798647 1.277077
3.528352 -9.807566 1.279774
3.564074 -9.803544 1.280801
3.598484 -9.795786 1.281357
3.636667 -9.798107 1.283248
3.670702 -9.789071 1.283669
3.707973 -9.788512 1.285219
3.746124 -9.790011 1.287058
3.789744 -9.805384 1.290742
3.822587 -9.792594 1.290738
3.862026 -9.796536 1.292957
3.896791 -9.788406 1.293601
3.938079 -9.796410 1.296397
3.971393 -9.784360 1.296557
4.016038 -9.799935 1.300398
4.044741 -9.776426 1.299071
4.092041 -9.797634 1.303704
4.127073 -9.789091 1.304402
4.165946 -9.789474 1.306306
4.209928 -9.801488 1.309786
4.242802 -9.787399 1.309797
4.280717 -9.784831 1.311366
4.317811 -9.780190 1.312677
4.364004 -9.795794 1.316728
4.399449 -9.786950 1.317514
4.440102 -9.789483 1.319852
4.483514 -9.797737 1.322984
4.519920 -9.790406 1.324033
4.557515 -9.785493 1.325428
4.597299 -9.785057 1.327449
4.645021 -9.801113 1.331733
4.673499 -9.776369 1.330492
4.717176 -9.783303 1.333581
4.761346 -9.790864 1.336780
4.805337 -9.797664 1.339900
4.847395 -9.800167 1.342458
4.883081 -9.789585 1.343243
4.925663 -9.792613 1.345917
4.972204 -9.803125 1.349646
5.005918 -9.788108 1.349882
5.048751 -9.790746 1.352572
5.088307 -9.786762 1.354371
5.130497 -9.787588 1.356858
5.168206 -9.779647 1.358152
5.217229 -9.792789 1.362399
5.251156 -9.777331 1.362690
5.304615 -9.797919 1.368030
5.334134 -9.774027 1.367184
5.390166 -9.798428 1.373117
5.429672 -9.792356 1.374810
5.482396 -9.809743 1.379824
5.516916 -9.794255 1.380239
5.556227 -9.787160 1.381857
5.600620 -9.788767 1.384727
5.641196 -9.783439 1.386642
5.686520 -9.786075 1.389710
5.736193 -9.795804 1.393815
5.779274 -9.793921 1.396296
5.825069 -9.796336 1.399417
5.863044 -9.785366 1.400650
5.904360 -9.779800 1.402679
5.947891 -9.777660 1.405224
6.002548 -9.793406 1.410372
6.047779 -9.793353 1.413276
6.099918 -9.804102 1.417771
6.140738 -9.796330 1.419617
6.181656 -9.788525 1.421481
6.227499 -9.788269 1.424468
6.271770 -9.785255 1.427082
6.318774 -9.786214 1.430303
6.365324 -9.786150 1.433405
6.410296 -9.783368 1.436137
6.456057 -9.781509 1.439034
6.511187 -9.793456 1.443995
6.560569 -9.796333 1.447654
6.604772 -9.791172 1.450156
6.655327 -9.795117 1.454037
6.700337 -9.790586 1.456691
6.737075 -9.773795 1.457546
6.799014 -9.793221 1.463834
6.846968 -9.792048 1.467082
6.886145 -9.778102 1.468443
6.945601 -9.792619 1.474112
6.999698 -9.799100 1.478612
7.037512 -9.782525 1.479663
7.084990 -9.779189 1.482743
7.151018 -9.800992 1.489676
7.185016 -9.778563 1.489920
7.238980 -9.783094 1.494300
7.296673 -9.792229 1.499424
7.340570 -9.782511 1.501696
7.397104 -9.789310 1.506539
7.446658 -9.786498 1.509940
7.493113 -9.779335 1.512702
7.552696 -9.788940 1.518097
7.602108 -9.784974 1.521426
7.661193 -9.793074 1.526670
7.712219 -9.790482 1.530289
7.771921 -9.798508 1.535607
7.816604 -9.787263 1.537944
7.866475 -9.782265 1.541294
7.921349 -9.783154 1.545610
7.973065 -9.779797 1.549295
8.037364 -9.791449 1.555401
8.098492 -9.798741 1.560864
8.142364 -9.784829 1.562988
8.198169 -9.784979 1.567393
8.256304 -9.787517 1.572225
8.311504 -9.786192 1.576480
8.369081 -9.787286 1.581168
8.412467 -9.771504 1.583166
8.478102 -9.781224 1.589337
8.545641 -9.792613 1.595834
8.594130 -9.781780 1.598756
8.654074 -9.783656 1.603796
8.707626 -9.777942 1.607636
8.773346 -9.785481 1.613703
8.827929 -9.780189 1.617702
8.881862 -9.773854 1.621571
8.955417 -9.788654 1.628999
9.017728 -9.790648 1.634353
9.072259 -9.783820 1.638281
9.133446 -9.783807 1.643398
9.194362 -9.783096 1.648447
9.257812 -9.784662 1.653932
9.326275 -9.791057 1.660289
9.379395 -9.780950 1.663898
9.448284 -9.786890 1.670289
9.507448 -9.782323 1.674940
9.569297 -9.780137 1.680050
9.637390 -9.783891 1.686236
9.702541 -9.784199 1.691886
9.775124 -9.791511 1.698808
9.837605 -9.788240 1.703954
9.896097 -9.780631 1.708396
9.963733 -9.781657 1.714401
10.032674 -9.783497 1.720609
10.104539 -9.787698 1.727296
10.169056 -9.784320 1.732707
10.239168 -9.785880 1.739053
10.300794 -9.778905 1.743942
10.376540 -9.784878 1.751202
10.442607 -9.781240 1.756807
10.503358 -9.772239 1.761505
10.587599 -9.784595 1.770121
10.660988 -9.786350 1.776895
10.738580 -9.791435 1.784346
10.801500 -9.782684 1.789341
10.878771 -9.786474 1.796696
10.952095 -9.786199 1.803376
11.022536 -9.782876 1.809564
11.084261 -9.771419 1.814309
11.168479 -9.779310 1.822717
11.252034 -9.786016 1.830988
11.318928 -9.777732 1.836528
11.401770 -9.782732 1.844637
11.478722 -9.782130 1.851770
11.554394 -9.779935 1.858678
11.632010 -9.778879 1.865879
11.708680 -9.776521 1.872909
11.790850 -9.778223 1.880798
11.861771 -9.770102 1.886875
11.956613 -9.781119 1.896734
12.031815 -9.775486 1.903454
12.125147 -9.784010 1.913019
12.204717 -9.780834 1.920388
12.283689 -9.776668 1.927645
12.378396 -9.784432 1.937348
12.467854 -9.787403 1.946203
12.547006 -9.781725 1.953428
12.630116 -9.778611 1.961252
12.721597 -9.781393 1.970353
12.805795 -9.777989 1.978305
12.897871 -9.780012 1.987453
12.987578 -9.779627 1.996212
13.079965 -9.780645 2.005361
13.161402 -9.772911 2.012811
13.263865 -9.780174 2.023455
13.364876 -9.785652 2.033848
13.451425 -9.779914 2.042017
13.532677 -9.769800 2.049368
13.644237 -9.780917 2.061284
13.746397 -9.784545 2.071750
13.830527 -9.774729 2.079479
13.929528 -9.774832 2.089425
14.029647 -9.775051 2.099514
15.702723 -6.713439 2.096867
15.715446 -6.656645 2.095574
15.709125 -6.591936 2.091772
15.716854 -6.533292 2.089873
15.698024 -6.463822 2.084476
15.726420 -6.413932 2.085379
15.722077 -6.350763 2.081968
15.718987 -6.288295 2.078755
15.717848 -6.226788 2.075832
15.719083 -6.166383 2.073253
15.705641 -6.100429 2.068771
15.718422 -6.044819 2.067773
15.706664 -5.979926 2.063577
15.708510 -5.920403 2.061200
15.719046 -5.864260 2.059991
15.715702 -5.803062 2.056991
15.706371 -5.739850 2.053240
15.718606 -5.684653 2.052336
15.703806 -5.619834 2.047932
15.710651 -5.562934 2.046381
15.715655 -5.505478 2.044616
15.708591 -5.443941 2.041311
15.711415 -5.385984 2.039320
15.698764 -5.322894 2.035350
15.720794 -5.271661 2.035903
15.710389 -5.209641 2.032282
15.720951 -5.154702 2.031402
15.714828 -5.094405 2.028392
15.701477 -5.031963 2.024480
15.702225 -4.974211 2.022414
15.713834 -4.919977 2.021774
15.716181 -4.862913 2.019966
15.706911 -4.802400 2.016694
15.711776 -4.746343 2.015264
15.698590 -4.684980 2.011547
15.703231 -4.629083 2.010141
15.700274 -4.571053 2.007790
15.704219 -4.515141 2.006347
15.710864 -4.460076 2.005274
15.708655 -4.402590 2.003097
15.692904 -4.341480 1.999221
15.704165 -4.287965 1.998813
15.704447 -4.231514 1.997032
15.703650 -4.174875 1.995139
15.709811 -4.120168 1.994156
15.693258 -4.059640 1.990316
15.702849 -4.005998 1.989817
15.698766 -3.948943 1.987611
15.703034 -3.894083 1.986487
15.708067 -3.839473 1.985484
15.702824 -3.782442 1.983207
15.701602 -3.726493 1.981464
15.720972 -3.675456 1.982342
15.708029 -3.616929 1.979170
15.693501 -3.558219 1.975825
15.704034 -3.505289 1.975660
15.706973 -3.450700 1.974563
15.702720 -3.394617 1.972587
15.714219 -3.341993 1.972613
15.687230 -3.281317 1.967833
15.707197 -3.230564 1.968968
15.709697 -3.176216 1.967935
15.704974 -3.120490 1.966022
15.703101 -3.065426 1.964490
15.701064 -3.010415 1.962961
15.688000 -2.953412 1.960079
15.701340 -2.901448 1.960519
15.709741 -2.848563 1.960364
15.695265 -2.791618 1.957379
15.702059 -2.738547 1.957070
15.693125 -2.682803 1.954824
15.706211 -2.630872 1.955345
15.696052 -2.575098 1.952994
15.716878 -2.524431 1.954521
15.702815 -2.468194 1.951732
15.694106 -2.412934 1.949633
15.707629 -2.361130 1.950319
15.701877 -2.306458 1.948634
15.708204 -2.253610 1.948470
15.711799 -2.200388 1.947990
15.699125 -2.144970 1.945516
15.699161 -2.091380 1.944641
15.700866 -2.038055 1.943995
15.690336 -1.983218 1.941857
15.709555 -1.932157 1.943422
15.700933 -1.877679 1.941566
15.710306 -1.825394 1.941957
15.704983 -1.771430 1.940554
15.708655 -1.718526 1.940285
15.703806 -1.664732 1.938986
15.712381 -1.612387 1.939366
15.697559 -1.557699 1.936881
15.709480 -1.505710 1.937719
15.703001 -1.451972 1.936308
15.690560 -1.397781 1.934185
15.704990 -1.346008 1.935397
15.698679 -1.292461 1.934074
15.705676 -1.240036 1.934413
15.694613 -1.186228 1.932550
15.700629 -1.133753 1.932812
15.709968 -1.081493 1.933504
15.692795 -1.027458 1.930956
15.692737 -0.974626 1.930535
15.702071 -0.922367 1.931292
15.701525 -0.869519 1.930856
15.701970 -0.816746 1.930563
15.693836 -0.763571 1.929237
15.698171 -0.711033 1.929466
15.697811 -0.658284 1.929140
15.708458 -0.605978 1.930188
15.700245 -0.552949 1.928940
15.703511 -0.500354 1.929124
15.707420 -0.447766 1.929409
15.710598 -0.395144 1.929626
15.708830 -0.342402 1.929257
15.709849 -0.289730 1.929252
15.696181 -0.236837 1.927465
15.705131 -0.184306 1.928477
15.714583 -0.131723 1.929573
15.697526 -0.078947 1.927435
15.690448 -0.026304 1.926545
15.698566 0.026317 1.927541
15.712794 0.079024 1.929310
15.710142 0.131686 1.929028
15.709920 0.184362 1.929066
15.709595 0.237039 1.929112
15.713076 0.289790 1.929648
15.698659 0.342180 1.928008
15.688141 0.394579 1.926868
15.697836 0.447493 1.928232
15.698004 0.500178 1.928448
15.704194 0.553088 1.929425
15.700109 0.605656 1.929162
15.699006 0.658334 1.929287
15.689324 0.710632 1.928379
15.693894 0.763574 1.929244
15.712610 0.817299 1.931871
15.689002 0.868825 1.929316
15.699960 0.922243 1.931033
15.701061 0.975143 1.931560
15.692257 1.027423 1.930889
15.707660 1.081334 1.933220
15.690319 1.133009 1.931542
15.699648 1.186608 1.933170
15.694304 1.239138 1.933012
15.699759 1.292550 1.934207
15.702411 1.345787 1.935079
15.686828 1.397449 1.933725
15.690805 1.450845 1.934804
15.688849 1.503732 1.935174
15.696233 1.557567 1.936718
15.704602 1.611589 1.938406
15.695173 1.663817 1.937920
15.689171 1.716394 1.937878
15.705976 1.771542 1.940677
15.696843 1.823830 1.940293
15.703441 1.877979 1.941876
15.704661 1.931555 1.942817
15.699289 1.984349 1.942965
15.694057 2.037171 1.943151
15.685719 2.089589 1.942976
15.701514 2.145296 1.945812
15.703595 2.199239 1.946973
15.701159 2.252599 1.947596
15.696545 2.305675 1.947972
15.688644 2.358277 1.947962
15.699120 2.413704 1.950256
15.703761 2.468342 1.951850
15.702814 2.522172 1.952772
15.703206 2.576272 1.953884
15.683815 2.627121 1.952557
15.688875 2.682077 1.954295
15.686641 2.735858 1.955148
15.698982 2.792279 1.957842
15.696927 2.846240 1.958765
15.688395 2.899056 1.958902
15.684568 2.952766 1.959650
15.693830 3.009028 1.962057
15.697897 3.064410 1.963838
15.702215 3.119942 1.965676
15.696914 3.173632 1.966334
15.685875 3.226179 1.966295
15.697332 3.283430 1.969100
15.687975 3.336412 1.969318
15.695885 3.393139 1.971728
15.703270 3.449886 1.974098
15.690150 3.502190 1.973914
15.699548 3.559590 1.976586
15.679686 3.610402 1.975599
15.680489 3.665992 1.977237
15.689989 3.723737 1.979998
15.691093 3.779617 1.981726
15.679483 3.832486 1.981871
15.681911 3.888845 1.983815
15.696005 3.948249 1.987261
15.693328 4.003569 1.988611
15.694670 4.060006 1.990495
15.693257 4.115827 1.992054
15.687273 4.170522 1.993059
15.684003 4.226005 1.994432
15.685865 4.282968 1.996484
15.697300 4.342696 1.999781
15.678890 4.394248 1.999302
15.684088 4.452475 2.001857
15.707020 4.515945 2.006705
15.687280 4.567270 2.006128
15.689112 4.624921 2.008334
15.694215 4.683674 2.010986
15.696203 4.741639 2.013267
15.701336 4.800695 2.015978
15.710306 4.861095 2.019211
15.696396 4.914517 2.019530
15.696736 4.972472 2.021707
15.685457 5.026829 2.022414
15.693741 5.087569 2.025670
15.699201 5.147571 2.028591
15.696868 5.205157 2.030533
15.679198 5.257713 2.030517
15.685559 5.318416 2.033638
15.687753 5.377872 2.036249
15.681345 5.434499 2.037771
15.691326 5.496955 2.041451
15.686456 5.554367 2.043229
15.677215 5.610319 2.044464
15.687280 5.673325 2.048246
15.698874 5.737110 2.052260
15.690651 5.793812 2.053712
15.690171 5.853488 2.056207
15.676292 5.908260 2.056973
15.687218 5.972522 2.061022
15.691467 6.034453 2.064227
15.686849 6.093129 2.066295
15.694667 6.156806 2.070033
15.702661 6.220772 2.073826
15.698248 6.279999 2.076013
15.698636 6.341294 2.078864
15.697537 6.402153 2.081549
15.680831 6.456743 2.082193
15.689159 6.521779 2.086190
15.679849 6.579651 2.087874
15.684122 6.643377 2.091397
15.686231 6.706388 2.094665
15.683661 6.767574 2.097340
13.801560 10.034481 2.095170
13.687398 10.021800 2.082929
13.591565 10.021805 2.073447
13.502510 10.026199 2.064978
13.408340 10.026191 2.055706
13.309267 10.021857 2.045656
13.219057 10.023558 2.036945
13.136836 10.030759 2.029446
13.033891 10.021510 2.018722
12.948898 10.025422 2.010753
12.841992 10.011698 1.999354
12.763284 10.019319 1.992319
12.667921 10.013287 1.982662
12.598910 10.027555 1.977112
12.510426 10.025828 1.968490
12.416432 10.019053 1.958976
12.334957 10.021780 1.951411
12.259663 10.029030 1.944808
12.155357 10.011918 1.933576
12.073663 10.012762 1.925910
11.990828 10.012109 1.918041
11.924414 10.024699 1.912783
11.829667 10.012933 1.902959
11.747952 10.011569 1.895203
11.676646 10.018577 1.889108
11.602130 10.022373 1.882479
11.519114 10.018298 1.874449
11.450889 10.026593 1.868806
11.363269 10.017380 1.859978
11.289918 10.020186 1.853460
11.214345 10.020531 1.846559
11.130219 10.012675 1.838224
11.060700 10.017436 1.832279
10.986816 10.017778 1.825594
10.913340 10.017999 1.818956
10.834728 10.012981 1.811438
10.763290 10.014077 1.805098
10.692769 10.015560 1.798893
10.615717 10.010417 1.791566
10.561068 10.025992 1.788006
10.483637 10.019526 1.780575
10.410463 10.016594 1.773841
10.341803 10.017521 1.767855
10.276696 10.021460 1.762459
10.202410 10.015973 1.755468
10.133649 10.015411 1.749405
10.061534 10.011046 1.742740
10.009477 10.026257 1.739536
9.932635 10.016229 1.732009
9.867323 10.017320 1.726467
9.805058 10.021091 1.721442
9.736046 10.017530 1.715212
9.672831 10.019484 1.709984
9.611648 10.023144 1.705100
9.541232 10.016726 1.698556
9.475444 10.014680 1.692812
9.414540 10.017373 1.687923
9.346133 10.011639 1.681667
9.299285 10.028652 1.679278
9.228777 10.019786 1.672603
9.160415 10.012726 1.666288
9.105791 10.020272 1.662454
9.047011 10.022902 1.657848
8.983646 10.020043 1.652384
8.923443 10.020285 1.647481
8.864819 10.021909 1.642852
8.811605 10.029310 1.639213
8.741100 10.016593 1.632335
8.674294 10.007571 1.626116
8.621975 10.014859 1.622594
8.567113 10.018876 1.618582
8.512319 10.022635 1.614569
8.445743 10.012089 1.608300
8.389380 10.013200 1.603951
8.329539 10.009762 1.598917
8.274610 10.011834 1.594808
8.209530 10.001189 1.588719
8.168038 10.018950 1.587181
8.099916 10.003691 1.580452
8.057364 10.019643 1.578696
7.996321 10.012289 1.573304
7.940685 10.011278 1.568953
7.889145 10.015084 1.565395
7.834540 10.014658 1.561214
7.784041 10.019147 1.557836
7.725582 10.013015 1.552847
7.673002 10.014110 1.549018
7.612843 10.004900 1.543637
7.569407 10.017335 1.541631
7.510647 10.009166 1.536489
7.466582 10.020248 1.534339
7.405851 10.008612 1.528747
7.361979 10.019403 1.526616
7.307327 10.015225 1.522238
7.256350 10.015713 1.518606
7.206505 10.017433 1.515194
7.148263 10.007081 1.509995
7.100498 10.011008 1.506987
7.050457 10.011418 1.503482
6.990416 9.997196 1.497818
6.948990 10.009245 1.496124
6.903099 10.014653 1.493464
6.856457 10.018708 1.490632
6.806053 10.016953 1.486967
6.754263 10.012784 1.482979
6.705603 10.012898 1.479657
6.657022 10.012806 1.476337
6.603005 10.004150 1.471788
6.567848 10.023823 1.471435
6.506497 10.003192 1.465196
6.465677 10.013731 1.463556
6.411763 10.003675 1.458936
6.373107 10.017133 1.457774
6.325022 10.015540 1.454448
6.275626 10.011517 1.450800
6.225524 10.005981 1.446965
6.176105 10.001155 1.443264
6.138843 10.015778 1.442396
6.094121 10.018046 1.439772
6.043051 10.009522 1.435627
5.995773 10.006889 1.432358
5.954032 10.013219 1.430399
5.907035 10.010432 1.427163
5.856433 10.001140 1.423031
5.813227 10.004128 1.420675
5.772486 10.011134 1.418914
5.727008 10.009667 1.415976
5.681872 10.008480 1.413105
5.635273 10.004376 1.409850
5.588588 9.999754 1.406551
5.556581 10.021235 1.406944
5.498478 9.995322 1.400710
5.458213 10.001385 1.398987
5.423263 10.017066 1.398629
5.372039 10.002409 1.394060
5.327191 9.999187 1.391114
5.291203 10.012390 1.390474
5.242579 10.001410 1.386501
5.200572 10.002689 1.384253
5.160232 10.006934 1.382438
5.121880 10.014849 1.381152
5.078560 10.012815 1.378515
5.032635 10.005283 1.375147
4.988175 10.000276 1.372153
4.949557 10.006713 1.370751
4.911987 10.015113 1.369638
4.869281 10.012815 1.367083
4.828096 10.013350 1.364939
4.784831 10.009262 1.362187
4.742235 10.006238 1.359604
4.701324 10.006468 1.357486
4.659065 10.003531 1.354961
4.623308 10.014350 1.354319
4.578443 10.005183 1.350996
4.540513 10.010867 1.349700
4.502786 10.016831 1.348461
4.467236 10.027516 1.347875
4.424217 10.021208 1.345026
4.375975 10.002570 1.340548
4.334696 9.999383 1.338165
4.297532 10.005447 1.337041
4.255942 10.000956 1.334526
4.216840 10.002011 1.332773
4.175784 9.998141 1.330384
4.138037 10.001930 1.329035
4.099956 10.004711 1.327570
4.060547 10.004008 1.325663
4.024143 10.010504 1.324729
3.984168 10.007891 1.322608
3.942837 10.001523 1.320012
3.906756 10.008217 1.319159
3.866591 10.004214 1.316915
3.830062 10.009375 1.315897
3.788640 10.001461 1.313179
3.754909 10.013635 1.313117
3.714726 10.008418 1.310792
3.674083 10.001582 1.308276
3.635346 9.999587 1.306414
3.604494 10.019213 1.307391
3.560400 10.001797 1.303554
3.526715 10.013306 1.303505
3.488630 10.012180 1.301829
3.451206 10.012694 1.300384
3.407243 9.993787 1.296437
3.374350 10.007031 1.296680
3.332012 9.991996 1.293277
3.300207 10.008312 1.293950
3.257728 9.992011 1.290423
3.223957 10.002096 1.290322
3.189268 10.009287 1.289863
3.150103 10.002179 1.287579
3.109124 9.988830 1.284511
3.075521 9.998889 1.284471
3.040699 10.004932 1.283931
3.004376 10.005875 1.282752
2.967318 10.004111 1.281243
2.935519 10.020013 1.282012
2.894422 10.003925 1.278705
2.858147 10.004065 1.277490
2.819901 9.996969 1.275370
2.786645 10.007364 1.275497
2.754571 10.022089 1.276189
2.718620 10.022665 1.275095
2.676496 9.999949 1.271056
2.642168 10.005896 1.270679
2.604165 9.997651 1.268516
2.569047 10.000165 1.267735
2.537609 10.017032 1.268787
2.496416 9.995078 1.264939
2.465914 10.015673 1.266492
2.427268 10.003069 1.263862
2.391776 10.003037 1.262838
2.358553 10.012394 1.263014
2.321515 10.005354 1.261137
2.284496 9.997942 1.259230
2.251344 10.007243 1.259444
2.216317 10.008133 1.258613
2.181858 10.011420 1.258100
2.141462 9.986882 1.254107
2.110806 10.007472 1.255797
2.076009 10.008554 1.255052
2.038612 9.996686 1.252699
2.004056 9.998336 1.252057
1.970953 10.007188 1.252331
1.939955 10.026998 1.253989
1.900004 10.000174 1.249831
1.865964 10.003804 1.249496
1.829159 9.992231 1.247277
1.797593 10.009146 1.248629
1.761511 10.000849 1.246850
1.726421 9.997729 1.245733
1.692755 10.002656 1.245633
1.659295 10.008799 1.245698
1.622051 9.991655 1.242880
1.588163 9.994653 1.242584
1.554910 10.001632 1.242796
1.521574 10.008152 1.242965
1.486419 10.002487 1.241636
1.451056 9.994894 1.240083
1.415568 9.985811 1.238360
1.384834 10.010414 1.240828
1.350826 10.011757 1.240426
1.313633 9.988721 1.237019
1.280591 9.996632 1.237460
1.247865 10.007264 1.238252
1.212749 9.998564 1.236665
1.179248 10.002818 1.236695
1.144983 10.000420 1.235917
1.111911 10.008375 1.236433
1.078476 10.013235 1.236579
1.042605 9.994818 1.233866
1.009111 9.998477 1.233894
0.975229 9.998178 1.233446
0.942495 10.009830 1.234487
0.907693 9.999316 1.232808
0.873262 9.992001 1.231538
0.839846 9.995951 1.231671
0.807129 10.008654 1.232896
0.772711 10.000229 1.231532
0.738231 9.989945 1.229954
0.705398 10.001806 1.231116
0.671780 10.002927 1.230970
0.638003 10.001424 1.230515
0.603881 9.993820 1.229323
0.570435 9.996931 1.229464
0.537157 10.003304 1.230019
0.503469 10.002158 1.229664
0.469722 9.999345 1.229117
0.436004 9.996513 1.228583
0.402132 9.989161 1.227506
0.368873 9.996814 1.228288
0.335565 10.004303 1.229063
0.301937 10.002609 1.228724
0.268194 9.995926 1.227785
0.234815 10.002618 1.228504
0.201292 10.004098 1.228595
0.167886 10.012906 1.229601
0.134153 10.001446 1.228132
0.100737 10.013494 1.229563
0.067080 10.001348 1.228037
0.033523 9.994370 1.227160
0.000013 10.021681 1.230506
-0.033522 10.002194 1.228120
-0.066970 9.989004 1.226521
-0.100524 9.994958 1.227287
-0.134147 10.002958 1.228317
-0.167559 9.994958 1.227397
-0.200833 9.982625 1.225958
-0.234782 10.002343 1.228470
-0.268333 10.002104 1.228544
-0.301803 9.999044 1.228286
-0.335499 10.003140 1.228920
-0.368712 9.993182 1.227841
-0.402368 9.995683 1.228308
-0.436092 9.999146 1.228906
-0.469531 9.995848 1.228687
-0.503414 10.001594 1.229594
-0.537194 10.004488 1.230164
-0.570071 9.991009 1.228735
-0.604788 10.009276 1.231224
-0.638750 10.013564 1.232008
-0.670923 9.990555 1.229447
-0.705446 10.002863 1.231246
-0.738676 9.996332 1.230740
-0.772232 9.994372 1.230811
-0.806964 10.006938 1.232684
-0.839678 9.994270 1.231464
-0.874978 10.011941 1.233996
-0.907047 9.992496 1.231967
-0.941885 10.003635 1.233723
-0.975027 9.996388 1.233225
-1.008495 9.992638 1.233173
-1.043488 10.003536 1.234942
-1.076451 9.994676 1.234287
-1.110644 9.997214 1.235054
-1.144373 9.995326 1.235287
-1.178168 9.993884 1.235590
-1.209885 9.975172 1.233771
-1.246978 10.000367 1.237398
