# This PCD file was generated using the MATLAB® pcwrite function
# from Computer Vision Toolbox®.
# .PCD v.7 - Point Cloud Data file format
VERSION .7
FIELDS x y z
SIZE 4 4 4
TYPE F F F
COUNT 1 1 1
WIDTH 1664
HEIGHT 1
VIEWPOINT 0 0 0 1 0 0 0
POINTS 1664
DATA ascii
-2.498136 10.002079 0.901948
-2.530219 9.987971 0.901436
-2.567481 9.994179 0.902768
-2.607956 10.012313 0.905191
-2.637275 9.987472 0.903739
-2.676431 9.999815 0.905663
-2.710961 9.994534 0.906003
-2.749160 10.002507 0.907556
-2.781251 9.988097 0.907090
-2.820437 9.998970 0.908931
-2.853751 9.988776 0.908869
-2.889817 9.988111 0.909685
-2.925361 9.985436 0.910329
-2.969831 10.012685 0.913716
-3.001714 9.997105 0.913208
-3.037513 9.994542 0.913899
-3.074660 9.996181 0.914986
-3.111678 9.997128 0.916023
-3.149878 10.001557 0.917391
-3.185461 9.997431 0.917987
-3.219744 9.989119 0.918210
-3.259466 9.997432 0.919973
-3.296438 9.996973 0.920943
-3.331125 9.989426 0.921271
-3.367972 9.988203 0.922195
-3.409401 10.000201 0.924353
-3.444481 9.993272 0.924775
-3.479678 9.986577 0.925230
-3.518896 9.991192 0.926745
-3.557107 9.992630 0.927979
-3.598700 10.003189 0.930075
-3.632788 9.992636 0.930221
-3.671283 9.994042 0.931493
-3.706909 9.987438 0.932030
-3.748528 9.996698 0.934062
-3.787600 9.998796 0.935439
-3.822249 9.989035 0.935720
-3.862433 9.993535 0.937349
-3.904316 10.002045 0.939370
-3.940744 9.996292 0.940066
-3.981245 10.000625 0.941723
-4.016840 9.992414 0.942213
-4.051006 9.980578 0.942372
-4.100706 10.006617 0.946124
-4.128914 9.979956 0.944906
-4.171484 9.987922 0.946979
-4.213251 9.993573 0.948849
-4.251984 9.991727 0.950022
-4.291812 9.992204 0.951430
-4.327101 9.981936 0.951829
-4.373291 9.996509 0.954611
-4.412374 9.994452 0.955822
-4.450790 9.990674 0.956883
-4.491265 9.991272 0.958377
-4.531847 9.991832 0.959883
-4.574049 9.995651 0.961717
-4.610139 9.985896 0.962261
-4.652607 9.989736 0.964128
-4.696829 9.996969 0.966341
-4.737950 9.997265 0.967900
-4.777067 9.993089 0.969040
-4.816101 9.988539 0.970160
-4.858760 9.991245 0.971999
-4.899595 9.989913 0.973462
-4.942308 9.992125 0.975287
-4.992304 10.008619 0.978525
-5.020910 9.982038 0.977567
-5.065302 9.986742 0.979685
-5.112065 9.995723 0.982242
-5.153164 9.993294 0.983696
-5.190736 9.983836 0.984472
-5.232940 9.983087 0.986123
-5.282186 9.995391 0.989082
-5.312662 9.971981 0.988523
-5.358895 9.977999 0.990895
-5.411731 9.995831 0.994462
-5.452047 9.990149 0.995710
-5.492589 9.984680 0.996995
-5.547388 10.004717 1.000847
-5.580860 9.985989 1.000840
-5.624130 9.984655 1.002590
-5.669231 9.986275 1.004656
-5.727718 10.010970 1.009067
-5.757918 9.985930 1.008483
-5.799998 9.981423 1.009986
-5.844617 9.981023 1.011923
-5.887410 9.977236 1.013534
-5.942263 9.993487 1.017203
-5.986849 9.992055 1.019095
-6.035892 9.997724 1.021731
-6.074952 9.986593 1.022670
-6.120914 9.986586 1.024765
-6.172333 9.995106 1.027757
-6.204017 9.971475 1.027460
-6.261193 9.988550 1.031377
-6.308528 9.989482 1.033651
-6.357436 9.992559 1.036170
-6.400226 9.985733 1.037681
-6.448534 9.987238 1.040078
-6.502569 9.997211 1.043381
-6.543918 9.987359 1.044637
-6.599191 9.998427 1.048103
-6.630256 9.972605 1.047721
-6.689682 9.989182 1.051813
-6.740703 9.992740 1.054561
-6.783970 9.984509 1.056087
-6.833733 9.985561 1.058616
-6.886683 9.990895 1.061623
-6.933833 9.987470 1.063724
-6.986865 9.992175 1.066714
-7.037029 9.992409 1.069252
-7.082461 9.985634 1.071062
-7.139074 9.994272 1.074550
-7.180651 9.981551 1.075764
-7.230391 9.979937 1.078197
-7.285125 9.984851 1.081361
-7.336093 9.984230 1.083951
-7.395878 9.995189 1.087827
-7.449742 9.997705 1.090813
-7.495486 9.989017 1.092601
-7.544084 9.983878 1.094799
-7.608521 9.999275 1.099279
-7.655401 9.991194 1.101206
-7.711806 9.995215 1.104493
-7.761715 9.990464 1.106838
-7.805299 9.977336 1.108276
-7.862889 9.981808 1.111695
-7.920548 9.985946 1.115107
-7.974851 9.985460 1.118032
-8.030762 9.986616 1.121170
-8.091290 9.993093 1.124937
-8.153908 10.001673 1.128974
-8.193059 9.981177 1.129755
-8.250653 9.982903 1.133075
-8.303653 9.978707 1.135752
-8.365030 9.984191 1.139562
-8.420669 9.982419 1.142576
-8.477033 9.981143 1.145677
-8.546166 9.994434 1.150485
-8.603171 9.993071 1.153642
-8.652430 9.982401 1.155753
-8.708982 9.979841 1.158830
-8.776240 9.989111 1.163317
-8.833238 9.986259 1.166427
-8.889940 9.982718 1.169489
-8.952591 9.985458 1.173320
-9.022808 9.996142 1.178123
-9.069959 9.980895 1.179904
-9.129859 9.979382 1.183337
-9.203965 9.992901 1.188592
-9.254155 9.980036 1.190746
-9.326418 9.990573 1.195727
-9.381856 9.982650 1.198537
-9.452832 9.990834 1.203318
-9.514816 9.989047 1.206939
-9.575231 9.985222 1.210348
-9.629284 9.974428 1.212947
-9.710012 9.990797 1.218889
-9.772203 9.987566 1.222486
-9.839006 9.988626 1.226646
-9.902128 9.985518 1.230335
-9.965522 9.982282 1.234046
-10.032581 9.982292 1.238199
-10.091949 9.974252 1.241392
-10.169154 9.983377 1.246764
-10.229768 9.975749 1.250087
-10.312020 9.988726 1.256039
-10.372840 9.980447 1.259364
-10.453762 9.991027 1.265115
-10.507327 9.975028 1.267543
-10.583961 9.980525 1.272743
-10.662672 9.987422 1.278175
-10.731407 9.984468 1.282394
-10.790856 9.972489 1.285495
-10.870945 9.979136 1.291043
-10.944681 9.979412 1.295819
-11.014014 9.975206 1.300061
-11.093137 9.979370 1.305444
-11.160482 9.972456 1.309427
-11.238911 9.974969 1.314697
-11.320969 9.980143 1.320374
-11.393414 9.976320 1.324915
-11.473517 9.978697 1.330332
-11.559557 9.985651 1.336419
-11.637705 9.985219 1.341575
-11.704759 9.974813 1.345442
-11.796071 9.984550 1.352083
-11.872657 9.981242 1.357018
-11.943750 9.972853 1.361314
-12.028313 9.975206 1.367133
-12.117910 9.981129 1.373505
-12.189079 9.971343 1.377774
-12.277400 9.975071 1.383970
-12.377479 9.987675 1.391468
-12.450889 9.978170 1.395952
-12.537215 9.978505 1.401872
-12.617396 9.973404 1.407091
-12.716654 9.982768 1.414419
-12.796040 9.975927 1.419521
-12.892191 9.981572 1.426467
-12.973819 9.975377 1.431790
-13.075377 9.983886 1.439295
-13.165955 9.983346 1.445573
-13.250051 9.977324 1.451126
-13.346354 9.979896 1.458000
-13.424986 9.968689 1.462930
-13.530859 9.977098 1.470814
-13.624605 9.975880 1.477360
-13.727481 9.980677 1.484878
-13.817093 9.975187 1.490945
-13.925611 9.982677 1.499035
-14.007723 9.970610 1.504267
-14.110214 9.972454 1.511674
-14.126128 9.912849 1.509810
-14.124242 9.841016 1.506073
-14.128251 9.773607 1.502998
-14.108625 9.690251 1.497446
-14.119347 9.628103 1.495149
-14.121501 9.560367 1.491974
-14.118021 9.489137 1.488237
-14.117853 9.420460 1.484881
-14.120578 9.354007 1.481861
-14.107599 9.277503 1.477226
-14.122457 9.219595 1.475537
-14.120779 9.151125 1.472148
-14.120753 9.084025 1.468961
-14.126766 9.021071 1.466432
-14.117560 8.948700 1.462354
-14.120897 8.884588 1.459606
-14.115452 8.815239 1.455980
-14.126162 8.756229 1.454048
-14.108699 8.680062 1.449247
-14.105323 8.612926 1.445925
-14.120793 8.557508 1.444562
-14.110025 8.486430 1.440541
-14.102099 8.417407 1.436843
-14.118507 8.363127 1.435650
-14.106137 8.292035 1.431557
-14.121778 8.237646 1.430333
-14.120287 8.173449 1.427398
-14.121534 8.111081 1.424767
-14.113023 8.043384 1.421180
-14.114256 7.981513 1.418601
-14.121526 7.923254 1.416654
-14.118336 7.859343 1.413682
-14.112426 7.794189 1.410466
-14.112599 7.732648 1.407884
-14.117597 7.673955 1.405808
-14.116423 7.612114 1.403142
-14.099186 7.541912 1.398907
-14.113839 7.488997 1.397862
-14.094857 7.418469 1.393511
-14.095754 7.358695 1.391152
-14.096796 7.299199 1.388832
-14.106045 7.244116 1.387342
-14.112056 7.187512 1.385556
-14.112745 7.128373 1.383269
-14.134534 7.079998 1.383070
-14.118921 7.013061 1.379234
-14.112639 6.951047 1.376336
-14.110339 6.891224 1.373850
-14.111707 6.833388 1.371745
-14.111443 6.774948 1.369504
-14.108876 6.715601 1.367062
-14.124393 6.664993 1.366392
-14.108805 6.599891 1.362736
-14.121691 6.548301 1.361852
-14.109520 6.485268 1.358574
-14.119130 6.432433 1.357415
-14.114081 6.373076 1.354868
-14.103896 6.311634 1.351851
-14.107772 6.256679 1.350204
-14.118069 6.204684 1.349191
-14.110837 6.145140 1.346523
-14.111764 6.089338 1.344656
-14.111547 6.033202 1.342700
-14.116733 5.979517 1.341279
-14.108794 5.920442 1.338631
-14.099918 5.861196 1.335917
-14.107780 5.809067 1.334809
-14.107030 5.753516 1.332905
-14.115763 5.701953 1.331916
-14.105260 5.642776 1.329133
-14.117248 5.592737 1.328488
-14.112044 5.536007 1.326244
-14.103878 5.478311 1.323743
-14.115598 5.428466 1.323127
-14.112901 5.373182 1.321178
-14.111869 5.318685 1.319405
-14.113154 5.265197 1.317867
-14.096742 5.205299 1.314698
-14.109302 5.156247 1.314249
-14.100549 5.099524 1.311834
-14.100292 5.046036 1.310229
-14.114789 4.997903 1.310011
-14.108232 4.942411 1.307858
-14.104661 4.888128 1.306000
-14.112419 4.837879 1.305209
-14.118525 4.787132 1.304282
-14.120410 4.735045 1.302982
-14.095208 4.674080 1.299203
-14.114960 4.628159 1.299586
-14.116034 4.576152 1.298265
-14.101545 4.519263 1.295532
-14.099068 4.466398 1.293921
-14.109094 4.417576 1.293474
-14.110404 4.366094 1.292245
-14.106631 4.313154 1.290568
-14.115801 4.264259 1.290092
-14.091405 4.205383 1.286566
-14.110842 4.159710 1.287060
-14.100455 4.105315 1.284850
-14.112380 4.057509 1.284690
-14.114528 4.006940 1.283655
-14.102582 3.952504 1.281356
-14.100243 3.900907 1.279948
-14.092598 3.847972 1.278076
-14.103506 3.800185 1.277903
-14.113493 3.752166 1.277660
-14.092180 3.695957 1.274602
-14.092649 3.645624 1.273532
-14.110174 3.599726 1.274018
-14.106196 3.548381 1.272577
-14.113999 3.500069 1.272215
-14.102083 3.446967 1.270092
-14.101097 3.396663 1.268971
-14.111257 3.349093 1.268867
-14.104388 3.297549 1.267248
-14.102869 3.247364 1.266127
-14.113675 3.200061 1.266126
-14.098970 3.147063 1.263853
-14.098702 3.097415 1.262891
-14.089852 3.045986 1.261177
-14.092522 2.997141 1.260509
-14.105474 2.950498 1.260776
-14.094282 2.898868 1.258900
-14.110240 2.852874 1.259463
-14.103413 2.802307 1.258008
-14.103311 2.753167 1.257169
-14.093232 2.702179 1.255456
-14.107827 2.655968 1.255956
-14.091629 2.604028 1.253729
-14.107517 2.558079 1.254373
-14.111096 2.509891 1.253936
-14.098194 2.458860 1.252049
-14.103376 2.411068 1.251785
-14.109616 2.363473 1.251628
-14.086830 2.311127 1.248913
-14.108237 2.266090 1.250130
-14.118246 2.219167 1.250350
-14.104285 2.168540 1.248463
-14.108499 2.120792 1.248200
-14.088741 2.069541 1.245831
-14.109011 2.024217 1.247016
-14.102737 1.975083 1.245869
-14.096309 1.926015 1.244724
-14.097017 1.877987 1.244223
-14.090975 1.829120 1.243142
-14.098981 1.782112 1.243314
-14.111993 1.735707 1.243941
-14.103531 1.686683 1.242690
-14.102571 1.638628 1.242114
-14.111560 1.591739 1.242429
-14.108636 1.543521 1.241709
-14.106811 1.495475 1.241100
-14.089506 1.445887 1.239144
-14.118752 1.401069 1.241296
-14.105814 1.352041 1.239753
-14.112119 1.304910 1.239916
-14.119531 1.257865 1.240189
-14.098400 1.208352 1.237970
-14.098740 1.160777 1.237652
-14.107726 1.113908 1.238106
-14.100714 1.065795 1.237170
-14.100114 1.018217 1.236811
-14.098961 0.970627 1.236417
-14.103224 0.923422 1.236512
-14.106900 0.876172 1.236570
-14.101303 0.828372 1.235829
-14.103073 0.781037 1.235748
-14.118733 0.734431 1.236897
-14.109015 0.686500 1.235837
-14.102534 0.638797 1.235075
-14.094519 0.591088 1.234193
-14.098269 0.543900 1.234354
-14.095573 0.496471 1.233966
-14.103778 0.449420 1.234545
-14.084059 0.401527 1.232694
-14.112452 0.354986 1.235068
-14.093524 0.307231 1.233315
-14.114298 0.260342 1.235049
-14.097678 0.212755 1.233526
-14.091162 0.165403 1.232900
-14.092713 0.118166 1.232994
-14.093071 0.070915 1.232998
-14.095596 0.023667 1.233205
-14.106190 0.000037 1.234130
-14.093575 -0.023664 1.730473
-14.113317 -0.071017 1.732917
-14.100184 -0.118229 1.731343
-14.098420 -0.165488 1.731185
-14.101510 -0.212813 1.731642
-14.107929 -0.260224 1.732528
-14.091642 -0.307190 1.730645
-14.102631 -0.354739 1.732130
-14.113598 -0.402369 1.733633
-14.102536 -0.449380 1.732450
-14.101653 -0.496685 1.732536
-14.104777 -0.544151 1.733135
-14.106875 -0.591606 1.733626
-14.103460 -0.638839 1.733460
-14.103709 -0.686242 1.733764
-14.087724 -0.732818 1.732091
-14.091020 -0.780370 1.732808
-14.088171 -0.827601 1.732789
-14.094270 -0.875387 1.733891
-14.094752 -0.922867 1.734321
-14.102858 -0.970895 1.735709
-14.093633 -1.017749 1.734984
-14.094883 -1.065355 1.735568
-14.107087 -1.113858 1.737521
-14.087873 -1.159882 1.735623
-14.116593 -1.209911 1.739652
-14.090424 -1.255272 1.736936
-14.100163 -1.303804 1.738665
-14.098983 -1.351386 1.739069
-14.100694 -1.399277 1.739849
-14.095707 -1.446524 1.739822
-14.089936 -1.493686 1.739718
-14.112050 -1.543895 1.743078
-14.099071 -1.590330 1.742124
-14.094618 -1.637704 1.742242
-14.103873 -1.686724 1.744075
-14.099868 -1.734215 1.744289
-14.095222 -1.781637 1.744444
-14.095596 -1.829720 1.745239
-14.101309 -1.878559 1.746717
-14.098557 -1.926323 1.747166
-14.094824 -1.973974 1.747514
-14.108435 -2.024134 1.750033
-14.097561 -2.070837 1.749536
-14.100828 -2.119639 1.750813
-14.096160 -2.167291 1.751126
-14.090013 -2.214729 1.751275
-14.098824 -2.264579 1.753304
-14.097788 -2.312925 1.754130
-14.095688 -2.361140 1.754843
-14.095237 -2.409677 1.755783
-14.097644 -2.458765 1.757100
-14.103418 -2.508525 1.758858
-14.104423 -2.557518 1.760043
-14.098580 -2.605313 1.760394
-14.099759 -2.654450 1.761643
-14.095397 -2.702594 1.762220
-14.094658 -2.751478 1.763271
-14.101048 -2.801838 1.765236
-14.078569 -2.846471 1.763606
-14.098202 -2.899674 1.767274
-14.083706 -2.945945 1.766685
-14.088049 -2.996189 1.768480
-14.096663 -3.047458 1.770834
-14.100142 -3.097731 1.772566
-14.091664 -3.145432 1.772816
-14.101413 -3.197281 1.775381
-14.093240 -3.245147 1.775712
-14.096502 -3.295706 1.777505
-14.090113 -3.344075 1.778103
-14.079666 -3.391501 1.778210
-14.099936 -3.446442 1.782219
-14.104957 -3.497827 1.784326
-14.103310 -3.547654 1.785612
-14.090201 -3.594631 1.785469
-14.096455 -3.646608 1.787800
-14.099798 -3.697955 1.789787
-14.104484 -3.749771 1.791967
-14.087358 -3.795834 1.791399
-14.096144 -3.848940 1.794147
-14.094333 -3.899272 1.795570
-14.096619 -3.950832 1.797539
-14.087730 -3.999333 1.798105
-14.087491 -4.050354 1.799798
-14.086263 -4.101182 1.801387
-14.090247 -4.153639 1.803668
-14.089411 -4.204788 1.805355
-14.100163 -4.259534 1.808553
-14.104697 -4.312563 1.810979
-14.094828 -4.361274 1.811579
-14.084166 -4.409771 1.812099
-14.095140 -4.465153 1.815426
-14.091582 -4.516070 1.816908
-14.092237 -4.568438 1.818958
-14.091723 -4.620540 1.820881
-14.089779 -4.672280 1.822643
-14.103369 -4.729331 1.826442
-14.087524 -4.776621 1.826454
-14.093808 -4.831499 1.829359
-14.080189 -4.879646 1.829704
-14.095484 -4.937945 1.833833
-14.076539 -4.984359 1.833532
-14.087974 -5.041627 1.837213
-14.095972 -5.097868 1.840475
-14.089498 -5.149010 1.841873
-14.091885 -5.203506 1.844455
-14.095690 -5.258682 1.847251
-14.105315 -5.316216 1.850838
-14.100349 -5.368403 1.852538
-14.096061 -5.420952 1.854352
-14.088042 -5.472159 1.855700
-14.083790 -5.524923 1.857569
-14.095224 -5.584013 1.861537
-14.094589 -5.638507 1.863939
-14.084011 -5.689127 1.865052
-14.100635 -5.750908 1.869796
-14.083543 -5.799087 1.870098
-14.099199 -5.860898 1.874775
-14.090000 -5.912555 1.876178
-14.091027 -5.968628 1.878968
-14.101808 -6.029038 1.883091
-14.095850 -6.082471 1.885008
-14.092888 -6.137323 1.887353
-14.093406 -6.193845 1.890193
-14.080105 -6.244409 1.891206
-14.088949 -6.304945 1.895223
-14.079852 -6.357620 1.896856
-14.097669 -6.422656 1.902147
-14.087954 -6.475355 1.903755
-14.093884 -6.535407 1.907506
-14.095730 -6.593775 1.910737
-14.096130 -6.651657 1.913804
-14.079738 -6.701731 1.914618
-14.077014 -6.758419 1.917319
-14.094961 -6.825280 1.922869
-14.088880 -6.880744 1.925176
-14.083376 -6.936633 1.927591
-14.092959 -7.000165 1.932104
-14.094337 -7.059863 1.935527
-14.087589 -7.115666 1.937866
-14.083772 -7.173106 1.940638
-14.088570 -7.235142 1.944631
-14.078670 -7.289813 1.946627
-14.094645 -7.358116 1.952236
-14.087337 -7.414511 1.954656
-14.073598 -7.467644 1.956213
-14.090215 -7.537113 1.962025
-14.084690 -7.595002 1.964790
-14.093512 -7.660863 1.969593
-14.095018 -7.723016 1.973411
-14.073965 -7.772947 1.974101
-14.093826 -7.845699 1.980565
-14.090383 -7.905780 1.983795
-14.087407 -7.966330 1.987126
-14.074457 -8.021404 1.989081
-14.083797 -8.089406 1.994223
-14.079743 -8.149980 1.997507
-14.076516 -8.211244 2.000944
-14.087121 -8.280858 2.006387
-14.090464 -8.346516 2.010837
-14.083575 -8.406350 2.013865
-14.079339 -8.467974 2.017308
-14.087713 -8.537460 2.022598
-14.071601 -8.592335 2.024409
-14.089307 -8.668131 2.031126
-14.087147 -8.732046 2.035024
-14.079316 -8.792671 2.038140
-14.077784 -8.857462 2.042206
-14.081380 -8.925765 2.047057
-14.081779 -8.992343 2.051487
-14.066537 -9.049148 2.053675
-14.076372 -9.122347 2.059565
-14.082335 -9.193402 2.064935
-14.085629 -9.263055 2.069961
-14.073313 -9.322697 2.072733
-14.082096 -9.396600 2.078655
-14.092895 -9.472248 2.084925
-14.085495 -9.535991 2.088549
-14.083031 -9.603339 2.092946
-14.083020 -9.672665 2.097752
-14.002295 -9.825951 2.100343
-13.878801 -9.808902 2.086741
-13.791425 -9.816650 2.078541
-13.701315 -9.821889 2.069911
-13.604832 -9.821946 2.060299
-13.516255 -9.827104 2.051863
-13.409768 -9.818577 2.040684
-13.323142 -9.823936 2.032502
-13.214967 -9.812740 2.021007
-13.124857 -9.814269 2.012247
-13.047049 -9.824462 2.005357
-12.955218 -9.823552 1.996294
-12.857041 -9.817173 1.986226
-12.760083 -9.811039 1.976318
-12.680363 -9.817568 1.969058
-12.585727 -9.811965 1.959460
-12.515512 -9.824869 1.953646
-12.423953 -9.820497 1.944483
-12.343871 -9.824621 1.937094
-12.254506 -9.820788 1.928226
-12.163144 -9.814724 1.919018
-12.090383 -9.823124 1.912723
-11.995986 -9.813382 1.902984
-11.919835 -9.817981 1.896115
-11.851151 -9.828284 1.890421
-11.760087 -9.819497 1.881136
-11.677245 -9.816960 1.873139
-11.598071 -9.816957 1.865708
-11.519794 -9.817186 1.858401
-11.440967 -9.816416 1.850983
-11.376832 -9.827805 1.845928
-11.289277 -9.818460 1.837053
-11.216047 -9.821014 1.830484
-11.142138 -9.822494 1.823787
-11.058995 -9.815288 1.815554
-10.992671 -9.822509 1.810062
-10.900434 -9.806014 1.800278
-10.840577 -9.818128 1.795819
-10.767357 -9.817727 1.789132
-10.696566 -9.819061 1.782830
-10.620183 -9.814759 1.775573
-10.550816 -9.816445 1.769469
-10.476686 -9.813213 1.762544
-10.406347 -9.813039 1.756236
-10.331200 -9.807823 1.749094
-10.270555 -9.815929 1.744389
-10.206636 -9.820531 1.739115
-10.129140 -9.811580 1.731506
-10.061807 -9.811959 1.725610
-9.993574 -9.811006 1.719540
-9.939295 -9.823377 1.715858
-9.871942 -9.822457 1.709906
-9.794903 -9.811376 1.702250
-9.734494 -9.816472 1.697462
-9.677801 -9.824968 1.693311
-9.605583 -9.817275 1.686425
-9.547860 -9.823956 1.682064
-9.484785 -9.824751 1.676746
-9.419799 -9.823133 1.671070
-9.344578 -9.810324 1.663552
-9.281382 -9.809626 1.658147
-9.225170 -9.815929 1.653975
-9.169095 -9.822047 1.649817
-9.104795 -9.818960 1.644162
-9.038097 -9.812816 1.638049
-8.976222 -9.811448 1.632788
-8.924179 -9.820474 1.629301
-8.860889 -9.816757 1.623747
-8.805799 -9.821732 1.619677
-8.739283 -9.813540 1.613485
-8.693501 -9.828282 1.611107
-8.620557 -9.811912 1.603677
-8.566658 -9.816750 1.599764
-8.505859 -9.813301 1.594546
-8.450860 -9.816154 1.590396
-8.389238 -9.810912 1.584981
-8.339721 -9.819467 1.581837
-8.276102 -9.811040 1.576000
-8.221177 -9.812494 1.571797
-8.163212 -9.809936 1.566995
-8.114745 -9.818460 1.564001
-8.055767 -9.813922 1.558967
-8.002326 -9.815741 1.554985
-7.942502 -9.809332 1.549743
-7.885040 -9.805404 1.544937
-7.837474 -9.813448 1.542055
-7.775977 -9.803675 1.536414
-7.734929 -9.819365 1.534800
-7.678801 -9.815636 1.530184
-7.621410 -9.809872 1.525294
-7.571713 -9.813642 1.521924
-7.522117 -9.817244 1.518563
-7.459609 -9.803572 1.512571
-7.418548 -9.817742 1.510911
-7.361517 -9.810480 1.505987
-7.307451 -9.806746 1.501644
-7.267439 -9.821610 1.500180
-7.209416 -9.811825 1.494985
-7.165319 -9.820648 1.492661
-7.110390 -9.814302 1.488064
-7.054010 -9.805511 1.483137
-7.009845 -9.813359 1.480761
-6.962728 -9.816820 1.477752
-6.907553 -9.808556 1.473014
-6.861092 -9.812302 1.470113
-6.811090 -9.810672 1.466439
-6.759378 -9.806206 1.462376
-6.707620 -9.801282 1.458280
-6.682690 -9.835445 1.460021
-6.618520 -9.811609 1.453180
-6.569733 -9.810073 1.449682
-6.517801 -9.803461 1.445468
-6.482478 -9.821597 1.444929
-6.427330 -9.809422 1.439960
-6.372653 -9.797475 1.435061
-6.331544 -9.806050 1.433200
-6.294161 -9.820249 1.432183
-6.242667 -9.812167 1.427943
-6.194363 -9.808703 1.424409
-6.148658 -9.809022 1.421453
-6.101531 -9.806752 1.418152
-6.062428 -9.817132 1.416706
-6.017312 -9.817554 1.413847
-5.965574 -9.806787 1.409408
-5.924401 -9.813054 1.407446
-5.882895 -9.818556 1.405398
-5.830293 -9.805180 1.400678
-5.786547 -9.806306 1.398059
-5.741471 -9.804877 1.395103
-5.698856 -9.807364 1.392731
-5.648857 -9.796786 1.388531
-5.613767 -9.811805 1.387984
-5.562840 -9.798869 1.383508
-5.530292 -9.818063 1.383592
-5.482230 -9.809508 1.379789
-5.435686 -9.803264 1.376339
-5.397061 -9.811025 1.374881
-5.353890 -9.810288 1.372254
-5.311983 -9.811589 1.369937
-5.264779 -9.802758 1.366232
-5.224700 -9.806875 1.364357
-5.182911 -9.807535 1.362023
-5.140425 -9.806592 1.359491
-5.099476 -9.808309 1.357351
-5.061635 -9.815795 1.356031
-5.014138 -9.804246 1.352105
-4.976409 -9.811481 1.350794
-4.930840 -9.802971 1.347339
-4.897540 -9.818637 1.347228
-4.853789 -9.813160 1.344236
-4.814612 -9.816639 1.342494
-4.771073 -9.810932 1.339518
-4.729588 -9.809112 1.337097
-4.684058 -9.798524 1.333506
-4.651455 -9.814757 1.333585
-4.600984 -9.792967 1.328521
-4.569958 -9.812277 1.329054
-4.525933 -9.803500 1.325802
-4.487671 -9.806890 1.324219
-4.446743 -9.804195 1.321834
-4.405315 -9.800070 1.319279
-4.369316 -9.807788 1.318338
-4.325774 -9.798297 1.315106
-4.288052 -9.801668 1.313621
-4.253543 -9.812249 1.313121
-4.214344 -9.811841 1.311168
-4.174877 -9.810534 1.309115
-4.134769 -9.807419 1.306842
-4.087157 -9.786015 1.302157
-4.053833 -9.798476 1.301999
-4.016723 -9.801681 1.300628
-3.984427 -9.816546 1.300821
-3.947362 -9.819576 1.299461
-3.902062 -9.801723 1.295360
-3.863690 -9.800831 1.293523
-3.825444 -9.799989 1.291711
-3.790830 -9.808273 1.291121
-3.749505 -9.798926 1.288228
-3.714604 -9.806094 1.287526
-3.676599 -9.804877 1.285741
-3.639573 -9.806017 1.284283
-3.604688 -9.812756 1.283575
-3.564308 -9.804268 1.280895
-3.530353 -9.813208 1.280509
-3.494992 -9.818136 1.279616
-3.451333 -9.799360 1.275653
-3.417809 -9.809012 1.275411
-3.377817 -9.799862 1.272741
-3.341775 -9.801846 1.271537
-3.300456 -9.787975 1.268295
-3.269471 -9.804538 1.269013
-3.234355 -9.808698 1.268141
-3.199003 -9.811980 1.267172
-3.157997 -9.797551 1.263934
-3.124277 -9.805408 1.263589
-3.087725 -9.804208 1.262093
-3.051970 -9.805301 1.260909
-3.018248 -9.812779 1.260562
-2.980462 -9.806826 1.258507
-2.944241 -9.805692 1.257087
-2.903445 -9.788864 1.253675
-2.871547 -9.801749 1.254085
-2.839519 -9.814262 1.254461
-2.802151 -9.808167 1.252474
-2.766253 -9.806880 1.251118
-2.729069 -9.800700 1.249156
-2.690486 -9.789026 1.246511
-2.656725 -9.794583 1.246077
-2.622352 -9.797762 1.245356
-2.588377 -9.802296 1.244822
-2.554155 -9.805765 1.244168
-2.518824 -9.804774 1.242964
-2.486429 -9.815111 1.243211
-2.448744 -9.804321 1.240797
-2.411394 -9.794344 1.238504
-2.380545 -9.810629 1.239547
-2.347022 -9.815977 1.239222
-2.307338 -9.795094 1.235602
-2.278068 -9.818225 1.237549
-2.238743 -9.797828 1.234025
-2.204890 -9.800877 1.233471
-2.172034 -9.808290 1.233481
-2.140764 -9.822984 1.234419
-2.101515 -9.800716 1.230728
-2.066312 -9.796656 1.229341
-2.031321 -9.793242 1.228052
-1.996927 -9.792407 1.227100
-1.962690 -9.792093 1.226230
-1.932306 -9.811100 1.227792
-1.894950 -9.794522 1.224915
-1.861929 -9.799921 1.224802
-1.828720 -9.804280 1.224574
-1.795317 -9.807508 1.224219
-1.759275 -9.795936 1.222031
-1.726797 -9.803915 1.222297
-1.695076 -9.816366 1.223134
-1.660336 -9.811250 1.221796
-1.624585 -9.799592 1.219659
-1.588373 -9.784369 1.217095
-1.556751 -9.797143 1.218028
-1.521355 -9.785971 1.215998
-1.487614 -9.784953 1.215245
-1.456756 -9.803059 1.216880
-1.423061 -9.802245 1.216180
-1.392022 -9.819901 1.217785
-1.355179 -9.796239 1.214280
-1.323442 -9.808997 1.215304
-1.288711 -9.799418 1.213575
-1.255624 -9.801936 1.213359
-1.222528 -9.804288 1.213136
-1.189400 -9.806277 1.212882
-1.155073 -9.797980 1.211370
-1.121643 -9.796794 1.210751
-1.089222 -9.804385 1.211231
-1.056350 -9.808045 1.211239
-1.022138 -9.798859 1.209675
-0.989603 -9.805450 1.210072
-0.955573 -9.796940 1.208620
-0.921631 -9.788518 1.207193
-0.890010 -9.804810 1.208827
-0.855947 -9.794187 1.207157
-0.823388 -9.800378 1.207573
-0.790941 -9.808250 1.208209
-0.756826 -9.794981 1.206255
-0.723941 -9.796923 1.206189
-0.690983 -9.797785 1.206003
-0.658724 -9.808912 1.207094
-0.624225 -9.785852 1.203992
-0.592537 -9.806519 1.206283
-0.559635 -9.808114 1.206242
-0.525576 -9.788122 1.203560
-0.493608 -9.806780 1.205644
-0.460751 -9.808935 1.205712
-0.427275 -9.796972 1.204059
-0.394508 -9.800423 1.204313
-0.361323 -9.792915 1.203235
-0.328811 -9.803716 1.204420
-0.295904 -9.803588 1.204276
-0.262967 -9.802106 1.203978
-0.230153 -9.805117 1.204247
-0.197231 -9.803544 1.203966
-0.164279 -9.799324 1.203373
-0.131475 -9.803699 1.203849
-0.098547 -9.798420 1.203154
-0.065694 -9.798591 1.203141
-0.032855 -9.802968 1.203658
0.000013 -9.802349 1.203575
0.032888 -9.805084 1.203918
0.065640 -9.786669 1.201677
0.098677 -9.808697 1.204416
0.131537 -9.806366 1.204177
0.164167 -9.791091 1.202362
0.197500 -9.815653 1.205453
0.229873 -9.792108 1.202649
0.263171 -9.808724 1.204791
0.296053 -9.807662 1.204776
0.328627 -9.797454 1.203651
0.361911 -9.808146 1.205107
0.394803 -9.807086 1.205132
0.427125 -9.792945 1.203564
0.460326 -9.799322 1.204530
0.492909 -9.792358 1.203871
0.525602 -9.788117 1.203559
0.558858 -9.794047 1.204512
0.591328 -9.786075 1.203769
0.624894 -9.795936 1.205233
0.658372 -9.803268 1.206400
0.689978 -9.783159 1.204203
0.723894 -9.795940 1.206068
0.757463 -9.802887 1.207229
0.789791 -9.793660 1.206412
0.823230 -9.798183 1.207303
0.856264 -9.797511 1.207567
0.889359 -9.797349 1.207908
0.923115 -9.803993 1.209101
0.956398 -9.805120 1.209629
0.989153 -9.800732 1.209490
1.021909 -9.796412 1.209373
1.054738 -9.792834 1.209361
1.089028 -9.802402 1.210987
1.121493 -9.795256 1.210562
1.155915 -9.804901 1.212226
1.187397 -9.789548 1.210813
1.221566 -9.796359 1.212155
1.253774 -9.787290 1.211546
1.290033 -9.809269 1.214796
1.321483 -9.794285 1.213482
1.355175 -9.796018 1.214253
1.388178 -9.792591 1.214398
1.422637 -9.799138 1.215795
1.455081 -9.791607 1.215459
1.491773 -9.812131 1.218621
1.523447 -9.799258 1.217649
1.556051 -9.792569 1.217460
1.591711 -9.804762 1.219632
1.625464 -9.804729 1.220299
1.659387 -9.805480 1.221078
1.694016 -9.810069 1.222350
1.725967 -9.799050 1.221691
1.759519 -9.797149 1.222183
1.791157 -9.784639 1.221365
1.828430 -9.802577 1.224362
1.860998 -9.794879 1.224173
1.894605 -9.792599 1.224675
1.929255 -9.795473 1.225837
1.962429 -9.790657 1.226050
1.999468 -9.804737 1.228646
2.033226 -9.802296 1.229188
2.067625 -9.802752 1.230107
2.101771 -9.801781 1.230863
2.135133 -9.797022 1.231157
2.166148 -9.781588 1.230123
2.202088 -9.788298 1.231889
2.237139 -9.790687 1.233126
2.270477 -9.785388 1.233411
2.306809 -9.792734 1.235305
2.343592 -9.801517 1.237397
2.378212 -9.800900 1.238319
2.413344 -9.802155 1.239493
2.445878 -9.792734 1.239332
2.479998 -9.789616 1.239982
2.520810 -9.812399 1.243932
2.548895 -9.785462 1.241593
2.589806 -9.807599 1.245497
2.623946 -9.803612 1.246101
2.652285 -9.778111 1.243982
2.694059 -9.801924 1.248154
2.727159 -9.793739 1.248269
2.762273 -9.792669 1.249306
2.798452 -9.795118 1.250809
2.833332 -9.792784 1.251717
2.870131 -9.796819 1.253455
2.905311 -9.795060 1.254470
2.939678 -9.790400 1.255128
2.979143 -9.802392 1.257939
3.013499 -9.797247 1.258568
3.050713 -9.801167 1.260379
3.084971 -9.795374 1.260957
3.122136 -9.798596 1.262712
3.160391 -9.804888 1.264881
3.193004 -9.793492 1.264785
3.228547 -9.790995 1.265853
3.262952 -9.784902 1.266473
3.304852 -9.800925 1.269974
3.338444 -9.791991 1.270259
3.375905 -9.794231 1.272011
3.406884 -9.777576 1.271325
3.448986 -9.792612 1.274776
3.486806 -9.795059 1.276609
3.523830 -9.794996 1.278134
3.564234 -9.803984 1.280859
3.604694 -9.812691 1.283568
3.635365 -9.794599 1.282789
3.667325 -9.780066 1.282488
3.707200 -9.786469 1.284951
3.746191 -9.790187 1.287081
3.784853 -9.792730 1.289076
3.825489 -9.800029 1.291718
3.859835 -9.790977 1.292223
3.898498 -9.792695 1.294168
3.936758 -9.793123 1.295962
3.978861 -9.802757 1.298995
4.013427 -9.793563 1.299552
4.053378 -9.797303 1.301845
4.090014 -9.792783 1.303059
4.129386 -9.794579 1.305133
4.170046 -9.799110 1.307592
4.205699 -9.791642 1.308470
4.245742 -9.794182 1.310704
4.286525 -9.798107 1.313146
4.326853 -9.800670 1.315426
4.366327 -9.801008 1.317429
4.404389 -9.797939 1.318994
4.449495 -9.810192 1.322644
4.484823 -9.800597 1.323370
4.517302 -9.784736 1.323266
4.563579 -9.798512 1.327191
4.599878 -9.790546 1.328194
4.637072 -9.784341 1.329454
4.678668 -9.787183 1.331964
4.713955 -9.776624 1.332670
4.762745 -9.793741 1.337173
4.799657 -9.786081 1.338317
4.839056 -9.783309 1.340149
4.882756 -9.788932 1.343154
4.926568 -9.794413 1.346165
4.968246 -9.795321 1.348572
5.007912 -9.792006 1.350419
5.052366 -9.797756 1.353541
5.092840 -9.795481 1.355578
5.132170 -9.790780 1.357301
5.169318 -9.781750 1.358444
5.223182 -9.803963 1.363953
5.254570 -9.783688 1.363576
5.302576 -9.794152 1.367504
5.342811 -9.789926 1.369408
5.380534 -9.780918 1.370664
5.431219 -9.795146 1.375202
5.470759 -9.788921 1.376895
5.515059 -9.790957 1.379775
5.563032 -9.799145 1.383549
5.610819 -9.806592 1.387249
5.651608 -9.801497 1.389201
5.686192 -9.785510 1.389629
5.729984 -9.785200 1.392306
5.772569 -9.782558 1.394676
5.820535 -9.788711 1.398327
5.873605 -9.802993 1.403173
5.909203 -9.787820 1.403829
5.961897 -9.800685 1.408533
5.999720 -9.788792 1.409707
6.040856 -9.782144 1.411659
6.089293 -9.787024 1.415301
6.129743 -9.778790 1.417075
6.176171 -9.779839 1.420220
6.227740 -9.788647 1.424523
6.277875 -9.794783 1.428471
6.317156 -9.783708 1.429937
6.364333 -9.784627 1.433182
6.412870 -9.787296 1.436714
6.460904 -9.788854 1.440114
6.500905 -9.777991 1.441715
6.556083 -9.789634 1.446664
6.600685 -9.785114 1.449259
6.653337 -9.792189 1.453602
6.696217 -9.784565 1.455795
6.753361 -9.797421 1.461069
6.799445 -9.793842 1.463927
6.843812 -9.787534 1.466405
6.897190 -9.793785 1.470798
6.944565 -9.791158 1.473892
6.992241 -9.788659 1.477037
7.041094 -9.787502 1.480416
7.090906 -9.787354 1.483981
7.141376 -9.787778 1.487668
7.197841 -9.796019 1.492580
7.242385 -9.787696 1.495003
7.298655 -9.794888 1.499831
7.350329 -9.795516 1.503692
7.400507 -9.793814 1.507232
7.446714 -9.786572 1.509951
7.503961 -9.793493 1.514892
7.547097 -9.781683 1.516971
7.603806 -9.787159 1.521765
7.658372 -9.789469 1.526108
7.708116 -9.785273 1.529474
7.761169 -9.784953 1.533483
7.816674 -9.787351 1.537958
7.869197 -9.785649 1.541828
7.925113 -9.787803 1.546345
7.983338 -9.792397 1.551291
8.030396 -9.782961 1.554052
8.090874 -9.789524 1.559395
8.148335 -9.792006 1.564134
8.206878 -9.795374 1.569059
8.258151 -9.789706 1.572577
8.304320 -9.777732 1.575117
8.357039 -9.773205 1.578893
8.423811 -9.784680 1.585301
8.484223 -9.788287 1.590485
8.538426 -9.784346 1.594487
8.602188 -9.790953 1.600255
8.651219 -9.780430 1.603267
8.706379 -9.776541 1.607405
8.775757 -9.788171 1.614146
8.829472 -9.781897 1.617984
8.899899 -9.793702 1.624864
8.950066 -9.782805 1.628025
9.004947 -9.776772 1.632036
9.069139 -9.780456 1.637718
9.127644 -9.777592 1.642354
9.188848 -9.777229 1.647459
9.254063 -9.780700 1.653262
9.323346 -9.787981 1.659768
9.392231 -9.794334 1.666175
9.450007 -9.788674 1.670593
9.503368 -9.778125 1.674221
9.585756 -9.796958 1.682939
9.636867 -9.783360 1.686144
9.701322 -9.782968 1.691673
9.763227 -9.779594 1.696741
9.833740 -9.784395 1.703285
9.904447 -9.788883 1.709837
9.966127 -9.784008 1.714813
10.037126 -9.787838 1.721372
10.096224 -9.779643 1.725875
10.162246 -9.777767 1.731547
10.231597 -9.778644 1.737767
10.296429 -9.774762 1.743203
10.376265 -9.784618 1.751155
10.448807 -9.787048 1.757850
10.514303 -9.782423 1.763341
10.583110 -9.780446 1.769371
10.657688 -9.783321 1.776345
10.733593 -9.786889 1.783517
10.806261 -9.786996 1.790130
10.869156 -9.777825 1.795108
10.946095 -9.780838 1.802389
11.013662 -9.775001 1.808107
11.104186 -9.788983 1.817570
11.170979 -9.781499 1.823125
11.248747 -9.783157 1.830453
11.323064 -9.781305 1.837199
11.404371 -9.784966 1.845058
11.468644 -9.773542 1.850145
11.541937 -9.769391 1.856674
11.630879 -9.777928 1.865697
11.711617 -9.778973 1.873379
11.799158 -9.785113 1.882123
11.874689 -9.780743 1.888930
11.941374 -9.768653 1.894317
12.036804 -9.779540 1.904243
12.119783 -9.779682 1.912172
12.198576 -9.775913 1.919422
12.289318 -9.781148 1.928529
12.361581 -9.771141 1.934717
12.456470 -9.778466 1.944426
12.543634 -9.779097 1.952903
12.635725 -9.782953 1.962122
12.707855 -9.770828 1.968225
12.807831 -9.779544 1.978620
12.896135 -9.778697 1.987185
12.980990 -9.774666 1.995200
13.077681 -9.778937 2.005010
13.176029 -9.783772 2.015048
13.255404 -9.773935 2.022164
13.346922 -9.772507 2.031116
13.456576 -9.783659 2.042799
13.544895 -9.778621 2.051218
13.633734 -9.773389 2.059698
13.728688 -9.771940 2.069081
13.832780 -9.776321 2.079818
13.927585 -9.773468 2.089133
14.032281 -9.776887 2.099909
15.715389 -6.718854 2.098559
15.709306 -6.654044 2.094755
15.711111 -6.592770 2.092037
15.714390 -6.532267 2.089545
15.710649 -6.469021 2.086152
15.706330 -6.405738 2.082715
15.709457 -6.345665 2.080297
15.708540 -6.284116 2.077374
15.714012 -6.225269 2.075325
15.704275 -6.160575 2.071300
15.708519 -6.101546 2.069150
15.724619 -6.047203 2.068588
15.710369 -5.981336 2.064064
15.719237 -5.924446 2.062608
15.720725 -5.864887 2.060211
15.702983 -5.798365 2.055326
15.720518 -5.745019 2.055089
15.722880 -5.686199 2.052894
15.711179 -5.622473 2.048893
15.712448 -5.563570 2.046615
15.692389 -5.497327 2.041589
15.721047 -5.448258 2.042930
15.715045 -5.387228 2.039791
15.717046 -5.329093 2.037720
15.714971 -5.269709 2.035149
15.702947 -5.207172 2.031320
15.705312 -5.149574 2.029381
15.718285 -5.095525 2.028838
15.705616 -5.033289 2.025013
15.709268 -4.976442 2.023321
15.704324 -4.916999 2.020550
15.715227 -4.862618 2.019844
15.709814 -4.803288 2.017067
15.705090 -4.744323 2.014406
15.706834 -4.687440 2.012603
15.703172 -4.629066 2.010134
15.702160 -4.571602 2.008031
15.704841 -4.515319 2.006426
15.709136 -4.459585 2.005054
15.715154 -4.404411 2.003926
15.699795 -4.343386 2.000099
15.707302 -4.288821 1.999212
15.713930 -4.234068 1.998238
15.718049 -4.178703 1.996969
15.703048 -4.118394 1.993297
15.714405 -4.065111 1.992998
15.705718 -4.006730 1.990181
15.701242 -3.949566 1.987925
15.715985 -3.897295 1.988126
15.717866 -3.841867 1.986723
15.704184 -3.782770 1.983379
15.712135 -3.728993 1.982793
15.695422 -3.669483 1.979120
15.707087 -3.616712 1.979051
15.700000 -3.559692 1.976643
15.716638 -3.508103 1.977246
15.715437 -3.452559 1.975627
15.695497 -3.393055 1.971679
15.699946 -3.338958 1.970821
15.709571 -3.285990 1.970635
15.702272 -3.229551 1.968350
15.712553 -3.176794 1.968293
15.688253 -3.117167 1.963928
15.697220 -3.064277 1.963754
15.708985 -3.011934 1.963951
15.704120 -2.956447 1.962093
15.698815 -2.900981 1.960204
15.713293 -2.849208 1.960808
15.701922 -2.792802 1.958209
15.688210 -2.736132 1.955344
15.691347 -2.682500 1.954603
15.695253 -2.629037 1.953981
15.703235 -2.576277 1.953888
15.708103 -2.523021 1.953430
15.706947 -2.468843 1.952246
15.707006 -2.414917 1.951236
15.699143 -2.359855 1.949265
15.701217 -2.306361 1.948552
15.693257 -2.251466 1.946616
15.695297 -2.198077 1.945944
15.711619 -2.146677 1.947064
15.707043 -2.092430 1.945617
15.707554 -2.038923 1.944823
15.707086 -1.985335 1.943929
15.707574 -1.931913 1.943177
15.710102 -1.878776 1.942700
15.712157 -1.825609 1.942186
15.706155 -1.771562 1.940699
15.698497 -1.717414 1.939031
15.705665 -1.664929 1.939215
15.707194 -1.611855 1.938726
15.701816 -1.558121 1.937407
15.697939 -1.504604 1.936295
15.703535 -1.452022 1.936374
15.700522 -1.398669 1.935413
15.693546 -1.345028 1.933986
15.688096 -1.291590 1.932770
15.693230 -1.239054 1.932880
15.699191 -1.186574 1.933113
15.693108 -1.133210 1.931886
15.711101 -1.081571 1.933643
15.699210 -1.027878 1.931745
15.711455 -0.975788 1.932838
15.710764 -0.922877 1.932362
15.694551 -0.869133 1.929998
15.709455 -0.817135 1.931483
15.692904 -0.763526 1.929123
15.695984 -0.710933 1.929197
15.697474 -0.658270 1.929099
15.712487 -0.606133 1.930683
15.702575 -0.553031 1.929226
15.706841 -0.500460 1.929533
15.711343 -0.447878 1.929891
15.709620 -0.395119 1.929506
15.706409 -0.342349 1.928960
15.689509 -0.289355 1.926754
15.703002 -0.236940 1.928303
15.710127 -0.184365 1.929091
15.691982 -0.131534 1.926798
15.688267 -0.078901 1.926298
15.698537 -0.026317 1.927538
15.695820 0.026313 1.927204
15.701509 0.078967 1.927924
15.697648 0.131581 1.927494
15.702311 0.184273 1.928131
15.696413 0.236840 1.927494
15.700844 0.289564 1.928146
15.702819 0.342271 1.928519
15.694696 0.394744 1.927673
15.716594 0.448028 1.930536
15.686539 0.499813 1.927039
15.702497 0.553028 1.929217
15.692479 0.605361 1.928224
15.687354 0.657846 1.927855
15.687099 0.710531 1.928105
15.684862 0.763134 1.928134
15.702680 0.816783 1.930650
15.675144 0.868058 1.927612
15.716107 0.923191 1.933019
15.691736 0.974563 1.930412
15.683510 1.026850 1.929813
15.716183 1.081921 1.934269
15.703634 1.133970 1.933182
15.696096 1.186340 1.932732
15.690333 1.238825 1.932523
15.704477 1.292938 1.934788
15.698386 1.345442 1.934583
15.692387 1.397944 1.934410
15.690884 1.450852 1.934814
15.697338 1.504546 1.936221
15.699935 1.557935 1.937175
15.682895 1.609361 1.935727
15.701262 1.664462 1.938672
15.700100 1.717589 1.939229
15.712652 1.772295 1.941502
15.696316 1.823769 1.940228
15.689046 1.876258 1.940096
15.706637 1.931798 1.943061
15.696683 1.984020 1.942642
15.699208 2.037839 1.943789
15.687077 2.089770 1.943144
15.712655 2.146819 1.947193
15.705307 2.199479 1.947185
15.701879 2.252703 1.947686
15.702679 2.306576 1.948733
15.694541 2.359163 1.948694
15.695633 2.413168 1.949823
15.693801 2.466777 1.950612
15.698526 2.521483 1.952239
15.705506 2.576649 1.954170
15.698314 2.629550 1.954362
15.682278 2.680949 1.953473
15.688039 2.736102 1.955323
15.703413 2.793067 1.958395
15.704948 2.847695 1.959766
15.682967 2.898053 1.958225
15.693719 2.954489 1.960793
15.701986 3.010592 1.963076
15.705683 3.065930 1.964812
15.696627 3.118831 1.964977
15.683386 3.170897 1.964639
15.704785 3.230068 1.968665
15.709410 3.285956 1.970615
15.699213 3.338802 1.970729
15.693702 3.392667 1.971454
15.693744 3.447793 1.972900
15.699982 3.504385 1.975150
15.682058 3.555624 1.974384
15.696229 3.614212 1.977683
15.696661 3.669772 1.979276
15.695401 3.725022 1.980681
15.691495 3.779713 1.981776
15.677726 3.832056 1.981649
15.682391 3.888964 1.983876
15.701236 3.949565 1.987924
15.684856 4.001408 1.987537
15.688730 4.058469 1.989741
15.688781 4.114653 1.991486
15.683312 4.169468 1.992555
15.700358 4.230412 1.996512
15.688970 4.283815 1.996879
15.697740 4.342818 1.999837
15.698903 4.399857 2.001853
15.685222 4.452796 2.002001
15.693832 4.512154 2.005020
15.687288 4.567272 2.006129
15.691429 4.625604 2.008631
15.695163 4.683957 2.011108
15.693111 4.740705 2.012870
15.685676 4.795907 2.013968
15.691032 4.855132 2.016734
15.696469 4.914540 2.019539
15.696691 4.972457 2.021701
15.686282 5.027093 2.022520
15.701305 5.090021 2.026647
15.689271 5.144315 2.027308
15.695318 5.204643 2.030333
15.694762 5.262932 2.032532
15.704370 5.324795 2.036077
15.696831 5.380984 2.037427
15.677716 5.433241 2.037299
15.694514 5.498072 2.041866
15.687873 5.554869 2.043414
15.697069 5.617424 2.047053
15.689555 5.674148 2.048543
15.703057 5.738638 2.052806
15.692136 5.794360 2.053907
15.685731 5.851831 2.055625
15.695203 5.915387 2.059454
15.686505 5.972250 2.060929
15.688831 6.033440 2.063880
15.686408 6.092958 2.066237
15.698792 6.158424 2.070577
15.686867 6.214515 2.071740
15.670384 6.268852 2.072328
15.692094 6.338652 2.077997
15.680193 6.395078 2.079249
15.699172 6.464295 2.084628
15.685616 6.520306 2.085719
15.685282 6.581931 2.088598
15.700247 6.650207 2.093547
15.688949 6.707550 2.095028
15.675562 6.764080 2.096257
13.771626 10.012718 2.090626
13.686476 10.021126 2.082788
13.595197 10.024483 2.074001
13.498763 10.023417 2.064405
13.403152 10.022312 2.054910
13.298322 10.013616 2.043974
13.228680 10.030854 2.038428
13.129899 10.025462 2.028375
13.032957 10.020793 2.018578
12.941141 10.019416 2.009549
12.861755 10.027105 2.002431
12.768933 10.023753 1.993200
12.687170 10.028502 1.985675
12.595175 10.024582 1.976526
12.504098 10.020758 1.967495
12.415311 10.018148 1.958799
12.322730 10.011846 1.949477
12.253326 10.023847 1.943803
12.161553 10.017022 1.934562
12.092263 10.028187 1.928877
12.001274 10.020831 1.919712
11.912672 10.014828 1.910899
11.840457 10.022065 1.904695
11.765745 10.026731 1.898074
11.683871 10.024776 1.890277
11.604302 10.024250 1.882831
11.521029 10.019965 1.874760
11.433698 10.011540 1.866001
11.361853 10.016131 1.859746
11.293436 10.023310 1.854038
11.210931 10.017481 1.845996
11.129578 10.012098 1.838118
11.064643 10.021007 1.832932
10.983878 10.015099 1.825105
10.909750 10.014704 1.818357
10.844109 10.021649 1.813007
10.772223 10.022388 1.806596
10.700389 10.022696 1.800175
10.631953 10.025728 1.794307
10.552383 10.017748 1.786536
10.474464 10.010760 1.779017
10.411480 10.017572 1.774014
10.349376 10.024858 1.769149
10.274781 10.019591 1.762130
10.203860 10.017397 1.755718
10.144152 10.025791 1.751218
10.066936 10.016421 1.743676
10.000711 10.017477 1.738013
9.934963 10.018577 1.732415
9.864045 10.013991 1.725893
9.808622 10.024735 1.722067
9.738026 10.019567 1.715561
9.657339 10.003436 1.707246
9.597299 10.008181 1.702554
9.546021 10.021754 1.699409
9.477983 10.017363 1.693266
9.416595 10.019559 1.688291
9.364955 10.031800 1.685054
9.285965 10.014288 1.676873
9.215479 10.005348 1.670193
9.160600 10.012928 1.666322
9.095251 10.008674 1.660529
9.048695 10.024768 1.658157
8.982437 10.018694 1.652161
8.919120 10.015430 1.646682
8.860250 10.016744 1.642005
8.793937 10.009200 1.635926
8.735150 10.009775 1.631224
8.681375 10.015741 1.627444
8.622648 10.015641 1.622720
8.563756 10.014950 1.617947
8.509848 10.019726 1.614101
8.443049 10.008896 1.607787
8.388570 10.012234 1.603796
8.336895 10.018600 1.600329
8.283636 10.022757 1.596548
8.215399 10.008339 1.589854
8.168068 10.018988 1.587187
8.107369 10.012896 1.581907
8.049413 10.009755 1.577138
8.000689 10.017757 1.574163
7.942063 10.013016 1.569225
7.884618 10.009338 1.564497
7.829010 10.007590 1.560112
7.779056 10.012730 1.556838
7.729206 10.017713 1.553575
7.677739 10.020293 1.549974
7.627133 10.023681 1.546534
7.570799 10.019177 1.541914
7.515484 10.015613 1.537479
7.456890 10.007242 1.532348
7.409009 10.012878 1.529398
7.349390 10.002271 1.524006
7.302929 10.009198 1.521322
7.254635 10.013345 1.518247
7.201619 10.010641 1.514167
7.148611 10.007567 1.510068
7.106642 10.019670 1.508291
7.056893 10.020558 1.504854
7.003024 10.015228 1.500519
6.949789 10.010395 1.496296
6.893437 10.000637 1.491374
6.856001 10.018044 1.490533
6.807037 10.018401 1.487182
6.758157 10.018557 1.483834
6.703243 10.009376 1.479137
6.656143 10.011484 1.476142
6.615824 10.023571 1.474645
6.565159 10.019720 1.470832
6.512682 10.012701 1.466588
6.460814 10.006200 1.462455
6.412798 10.005289 1.459171
6.368248 10.009495 1.456662
6.326592 10.018027 1.454809
6.272864 10.007111 1.450161
6.227798 10.009638 1.447494
6.185253 10.015969 1.445402
6.144453 10.024931 1.443714
6.082544 9.999015 1.437037
6.043245 10.009845 1.435673
5.997693 10.010094 1.432817
5.948518 10.003947 1.429074
5.907278 10.010843 1.427222
5.864219 10.014437 1.424923
5.816614 10.009956 1.421503
5.763278 9.995165 1.416650
5.725161 10.006438 1.415519
5.682987 10.010444 1.413383
5.634059 10.002220 1.409547
5.596462 10.013843 1.408532
5.549569 10.008588 1.405168
5.503383 10.004238 1.401959
5.463886 10.011779 1.400441
5.422579 10.015804 1.398453
5.370672 9.999864 1.393705
5.335851 10.015442 1.393375
5.290934 10.011880 1.390404
5.246398 10.008698 1.387511
5.201642 10.004746 1.384538
5.160940 10.008307 1.382628
5.117044 10.005393 1.379848
5.073824 10.003478 1.377230
5.028671 9.997402 1.374064
4.986135 9.996187 1.371592
4.952208 10.012071 1.371485
4.906043 10.002993 1.367981
4.865017 10.004045 1.365886
4.817942 9.992290 1.362068
4.778712 9.996461 1.360445
4.739544 10.000560 1.358832
4.694117 9.991127 1.355405
4.660544 10.006706 1.355391
4.615442 9.997313 1.352015
4.586355 10.022474 1.353330
4.537972 10.005265 1.348945
4.492558 9.994079 1.345398
4.460956 10.013420 1.345981
4.416827 10.004467 1.342779
4.382494 10.017471 1.342545
4.339407 10.010251 1.339620
4.300498 10.012353 1.337964
4.258280 10.006450 1.335260
4.223730 10.018354 1.334951
4.175736 9.998027 1.330369
4.136460 9.998119 1.328529
4.100375 10.005734 1.327706
4.062772 10.009491 1.326390
4.021002 10.002689 1.323694
3.986140 10.012844 1.323262
3.946784 10.011534 1.321333
3.902772 9.998010 1.317814
3.868432 10.008977 1.317542
3.824521 9.994893 1.313993
3.788247 10.000422 1.313042
3.749642 9.999588 1.311275
3.712506 10.002438 1.310009
3.674400 10.002445 1.308389
3.633644 9.994906 1.305802
3.597076 9.998593 1.304701
3.562923 10.008886 1.304478
3.524347 10.006583 1.302630
3.488882 10.012904 1.301923
3.447074 10.000707 1.298827
3.414406 10.014794 1.299162
3.374854 10.008525 1.296874
3.335569 10.002665 1.294658
3.300596 10.009495 1.294103
3.259401 9.997141 1.291085
3.228657 10.016681 1.292203
3.190142 10.012031 1.290216
3.153603 10.013292 1.289009
3.117236 10.014891 1.287862
3.076603 10.002405 1.284923
3.039521 10.001054 1.283433
3.000306 9.992319 1.281014
2.969727 10.012235 1.282284
2.934425 10.016278 1.281534
2.898648 10.018532 1.280572
2.857054 10.000236 1.277002
2.821729 10.003449 1.276197
2.787470 10.010328 1.275875
2.748932 10.001574 1.273577
2.714029 10.005739 1.272942
2.677935 10.005327 1.271740
2.640483 9.999512 1.269868
2.603812 9.996294 1.268344
2.567781 9.995234 1.267110
2.535226 10.007623 1.267596
2.498812 10.004672 1.266154
2.462853 10.003243 1.264921
2.430577 10.016706 1.265585
2.389530 9.993644 1.261652
2.355807 10.000738 1.261544
2.321388 10.004808 1.261068
2.283168 9.992128 1.258498
2.250533 10.003635 1.258990
2.216567 10.009260 1.258755
2.178121 9.994273 1.255945
2.144891 10.002876 1.256115
2.109845 10.002915 1.255225
2.076916 10.012925 1.255600
2.036949 9.988530 1.251678
2.004042 9.998268 1.252049
1.969258 9.998584 1.251254
1.933519 9.993732 1.249829
1.900672 10.003690 1.250270
1.867748 10.013370 1.250690
1.831930 10.007369 1.249167
1.797001 10.005851 1.248218
1.763812 10.013911 1.248479
1.727789 10.005648 1.246719
1.692974 10.003952 1.245794
1.659173 10.008060 1.245606
1.623722 10.001948 1.244161
1.588829 9.998844 1.243105
1.559185 10.029132 1.246213
1.522225 10.012431 1.243497
1.486145 10.000647 1.241408
1.450771 9.992927 1.239838
1.415845 9.987762 1.238602
1.384241 10.006129 1.240297
1.350451 10.008982 1.240082
1.315185 10.000522 1.238481
1.280322 9.994528 1.237200
1.246211 9.993999 1.236610
1.213379 10.003755 1.237307
1.178623 9.997519 1.236040
1.146308 10.011994 1.237348
1.111485 10.004540 1.235959
1.076074 9.990929 1.233825
1.043137 9.999919 1.234496
1.010045 10.007731 1.235036
0.976638 10.012630 1.235229
0.941695 10.001324 1.233438
0.908789 10.011389 1.234296
0.874360 10.004569 1.233087
0.840566 10.004521 1.232727
0.807160 10.009043 1.232944
0.772117 9.992541 1.230585
0.739565 10.008006 1.232177
0.705500 10.003252 1.231294
0.670720 9.987135 1.229026
0.637420 9.992286 1.229390
0.604733 10.007917 1.231057
0.570979 10.006467 1.230636
0.536529 9.991616 1.228582
0.504026 10.013214 1.231023
0.469475 9.994082 1.228470
0.436095 9.998605 1.228840
0.402172 9.990149 1.227628
