# This PCD file was generated using the MATLAB® pcwrite function
# from Computer Vision Toolbox®.
# .PCD v.7 - Point Cloud Data file format
VERSION .7
FIELDS x y z
SIZE 4 4 4
TYPE F F F
COUNT 1 1 1
WIDTH 1612
HEIGHT 1
VIEWPOINT 0 0 0 1 0 0 0
POINTS 1612
DATA ascii
15.695148 -0.184189 -1.373240
15.690196 -0.131519 -1.372760
15.683689 -0.078877 -1.372160
15.707462 -0.026332 -1.374225
15.700799 0.026321 -1.373642
15.697154 0.078945 -1.373338
15.712731 0.131708 -1.374732
15.701095 0.184259 -1.373760
15.695025 0.236819 -1.373291
15.707345 0.289684 -1.374446
15.704179 0.342300 -1.374262
15.702280 0.394935 -1.374204
15.689230 0.447248 -1.373185
15.714151 0.500693 -1.375506
15.703298 0.553057 -1.374710
15.711788 0.606106 -1.375624
15.687563 0.657854 -1.373688
15.697600 0.711007 -1.374768
15.701094 0.763924 -1.375291
15.701400 0.816716 -1.375550
15.699873 0.869428 -1.375663
15.680574 0.921104 -1.374235
15.711553 0.975794 -1.377229
15.706575 1.028361 -1.377087
15.706234 1.081236 -1.377368
15.702251 1.133870 -1.377344
15.694154 1.186193 -1.376975
15.704548 1.239947 -1.378244
15.695881 1.292231 -1.377856
15.699252 1.345517 -1.378540
15.699322 1.398562 -1.378950
15.693711 1.451114 -1.378877
15.698631 1.504670 -1.379745
15.695531 1.557498 -1.379923
15.701724 1.611293 -1.380935
15.706243 1.664990 -1.381816
15.688157 1.716283 -1.380723
15.687589 1.769468 -1.381187
15.701586 1.824381 -1.382950
15.703785 1.878020 -1.383691
15.700759 1.931075 -1.383987
15.691233 1.983331 -1.383726
15.687741 2.036351 -1.384012
15.704225 2.092055 -1.386077
15.685562 2.143117 -1.385057
15.684402 2.196552 -1.385597
15.692528 2.251361 -1.386974
15.683363 2.303738 -1.386838
15.697250 2.359570 -1.388758
15.713608 2.415932 -1.390914
15.686954 2.465701 -1.389279
15.695465 2.520991 -1.390773
15.694466 2.574838 -1.391442
15.697264 2.629374 -1.392464
15.711922 2.686017 -1.394555
15.705284 2.739110 -1.394773
15.699255 2.792328 -1.395061
15.703321 2.847400 -1.396263
15.706201 2.902346 -1.397377
7.273924 1.369384 -0.647564
7.282679 1.396331 -0.648757
7.286549 1.422418 -0.649522
7.286978 1.447881 -0.649990
7.281617 1.472211 -0.649948
7.294687 1.500328 -0.651560
7.293095 1.525505 -0.651871
7.282421 1.548776 -0.651378
7.284592 1.574784 -0.652040
7.291966 1.601988 -0.653178
7.282376 1.625495 -0.652803
7.283810 1.651473 -0.653424
7.287028 1.677910 -0.654214
7.290104 1.704377 -0.654999
7.286199 1.729249 -0.655166
7.284296 1.754616 -0.655520
7.277688 1.778862 -0.655458
7.272399 1.803430 -0.655523
7.272338 1.829319 -0.656067
7.283015 1.857990 -0.657588
7.281250 1.883564 -0.657995
7.293144 1.912753 -0.659646
7.282612 1.936110 -0.659277
7.276518 1.960635 -0.659317
7.297393 1.992526 -0.661810
7.272241 2.011883 -0.660137
7.272132 2.038126 -0.660743
7.282225 2.067313 -0.662286
7.289606 2.095844 -0.663593
7.277187 2.118715 -0.663105
7.286429 2.147933 -0.664600
7.266730 2.168633 -0.663463
7.276907 2.198268 -0.665061
7.294779 2.230384 -0.667374
7.283684 2.253723 -0.667047
15.693648 4.913657 -1.438740
15.674855 4.965540 -1.438535
15.693507 5.029409 -1.441786
15.700474 5.089752 -1.443986
15.689489 5.144386 -1.444554
15.671322 5.196686 -1.444477
15.688923 5.260974 -1.447718
15.706725 5.325593 -1.451000
15.688251 5.378043 -1.450951
15.707182 5.443453 -1.454381
15.696054 5.498612 -1.455050
15.702752 5.560137 -1.457391
15.696760 5.617313 -1.458574
15.690034 5.674320 -1.459709
15.694742 5.735600 -1.461928
15.687103 5.792501 -1.463017
15.685163 5.851619 -1.464658
15.687474 5.912475 -1.466717
15.692800 5.974647 -1.469079
15.687936 6.033095 -1.470509
15.680752 6.090761 -1.471742
15.682470 6.152021 -1.473831
15.690813 6.216078 -1.476565
15.698735 6.280193 -1.479284
15.682050 6.334594 -1.479704
15.690733 6.399377 -1.482540
15.686938 6.459258 -1.484219
15.683125 6.519270 -1.485918
15.695650 6.586282 -1.489189
15.672707 6.638542 -1.489115
15.683908 6.705395 -1.492307
15.689800 6.770224 -1.495019
15.678915 6.827974 -1.496155
15.694804 6.897587 -1.499870
15.693811 6.960025 -1.501997
15.689087 7.020972 -1.503789
15.696225 7.087428 -1.506742
15.684807 7.145678 -1.507938
15.699769 7.216156 -1.511694
15.691770 7.276304 -1.513264
15.688840 7.338958 -1.515346
15.693827 7.405524 -1.518217
15.684581 7.465560 -1.519736
15.679644 7.527795 -1.521694
15.674218 7.589961 -1.523629
15.688066 7.661705 -1.527463
15.678192 7.722093 -1.529014
15.665125 7.781029 -1.530276
15.675988 7.852061 -1.533900
15.694379 7.927206 -1.538292
15.681986 7.987052 -1.539693
15.694596 8.059859 -1.543576
15.686906 8.122491 -1.545489
15.683523 8.187537 -1.547852
15.681164 8.253328 -1.550341
15.682805 8.321459 -1.553253
15.677264 8.386001 -1.555480
15.680079 8.455243 -1.558563
15.689186 8.528176 -1.562302
15.690104 8.596950 -1.565255
15.682503 8.661277 -1.567385
15.685645 8.731772 -1.570616
15.689600 8.803009 -1.573959
15.673482 8.863189 -1.575314
15.685962 8.939788 -1.579572
15.692769 9.013507 -1.583292
15.681891 9.077318 -1.585256
15.671185 9.141405 -1.587263
15.692744 9.224638 -1.592571
15.684424 9.290645 -1.594878
15.680094 9.359241 -1.597620
15.685939 9.434201 -1.601429
15.694259 9.511005 -1.605525
15.691453 9.581384 -1.608516
15.699297 9.658585 -1.612630
15.675447 9.716511 -1.613518
15.689780 9.798365 -1.618366
15.692425 9.873303 -1.622044
15.679933 9.938982 -1.624188
15.685749 10.016548 -1.628260
15.594414 10.031988 -1.622261
15.458812 10.018193 -1.611640
15.354573 10.023903 -1.604268
15.247586 10.027128 -1.596593
15.138399 10.028192 -1.588672
15.027022 10.027065 -1.580503
14.919094 10.027504 -1.572678
14.812729 10.028276 -1.565001
14.701485 10.025011 -1.556791
14.600322 10.027906 -1.549630
14.485852 10.020930 -1.541038
14.384095 10.022011 -1.533779
14.286781 10.025529 -1.526978
14.184310 10.024765 -1.519610
14.084904 10.025491 -1.512552
13.985220 10.025352 -1.505449
13.881666 10.021749 -1.497910
13.782842 10.020872 -1.490864
13.688799 10.022826 -1.484318
13.592228 10.022294 -1.477482
13.495971 10.021343 -1.470663
13.404037 10.022973 -1.464298
13.306534 10.019800 -1.457309
13.213900 10.019647 -1.450834
13.130677 10.026056 -1.445380
13.037120 10.023993 -1.438773
12.937493 10.016592 -1.431476
12.861584 10.026972 -1.426789
12.770024 10.024611 -1.420352
12.667338 10.012826 -1.412657
12.588046 10.018908 -1.407553
12.501389 10.018586 -1.401611
12.409633 10.013567 -1.395080
12.334004 10.021007 -1.390347
12.254192 10.024555 -1.385131
12.171907 10.025550 -1.379622
12.077723 10.016129 -1.372746
12.003956 10.023069 -1.368173
11.915983 10.017612 -1.361967
11.837674 10.019711 -1.356848
11.759854 10.021711 -1.351772
11.675615 10.017693 -1.345943
11.593180 10.014643 -1.340303
11.516377 10.015919 -1.335299
11.436864 10.014313 -1.329965
11.367944 10.021501 -1.325850
11.280111 10.011483 -1.319514
11.208226 10.015064 -1.315025
11.156496 10.036314 -1.312896
11.063958 10.020387 -1.305953
10.982427 10.013776 -1.300285
10.915016 10.019537 -1.296274
10.842030 10.019729 -1.291588
10.767361 10.017865 -1.286687
10.697289 10.019793 -1.282321
10.608164 10.003295 -1.275651
10.559977 10.024957 -1.273891
10.496811 10.032117 -1.270321
10.404036 10.010409 -1.263149
10.339866 10.015645 -1.259428
10.281558 10.026200 -1.256413
10.201257 10.014841 -1.250696
10.130847 10.012642 -1.246173
10.066747 10.016232 -1.242412
9.999329 10.016093 -1.238229
9.934683 10.018293 -1.234377
9.877124 10.027269 -1.231395
9.806007 10.022062 -1.226711
9.729908 10.011215 -1.221384
9.677810 10.024640 -1.219056
9.603763 10.014921 -1.213952
9.542882 10.018458 -1.210495
9.467307 10.006080 -1.205157
9.409320 10.011819 -1.202042
9.350735 10.016568 -1.198842
9.295132 10.024173 -1.196015
9.233111 10.024492 -1.192353
9.167135 10.020072 -1.188164
9.098546 10.012300 -1.183619
9.039030 10.014061 -1.180238
8.968525 10.003177 -1.175404
8.925706 10.022826 -1.174190
8.857778 10.013949 -1.169665
8.795002 10.010412 -1.165800
8.727994 10.001575 -1.161357
8.675601 10.009080 -1.158844
8.623953 10.017157 -1.156425
8.569297 10.021430 -1.153595
8.508204 10.017791 -1.149886
8.445724 10.012066 -1.145972
8.390707 10.014784 -1.143057
8.331759 10.012429 -1.139593
8.277403 10.015214 -1.136745
8.210373 10.002215 -1.132139
8.162562 10.012235 -1.130169
8.105350 10.010403 -1.126888
8.061309 10.024548 -1.125431
7.995172 10.010849 -1.120878
7.946034 10.018023 -1.118691
7.885945 10.011023 -1.114951
7.840496 10.022272 -1.113270
7.786926 10.022860 -1.110429
7.719236 10.004791 -1.105553
7.672934 10.014022 -1.103724
7.615721 10.008682 -1.100315
7.570452 10.018718 -1.098622
7.509792 10.008027 -1.094683
7.468756 10.023166 -1.093593
7.404539 10.006839 -1.089097
7.361682 10.019000 -1.087728
7.297668 10.001987 -1.083219
7.254165 10.012695 -1.081738
7.197557 10.004994 -1.078293
7.153888 10.014955 -1.076775
7.101410 10.012294 -1.073923
7.047645 10.007426 -1.070861
7.008092 10.022476 -1.069951
6.948379 10.008365 -1.065951
6.897285 10.006220 -1.063254
6.846864 10.004690 -1.060646
6.801329 10.010000 -1.058785
6.755116 10.014050 -1.056812
6.693724 9.995161 -1.052444
6.648980 10.000710 -1.050676
6.608706 10.012787 -1.049610
6.563930 10.017843 -1.047828
6.513455 10.013890 -1.045124
6.456160 9.998992 -1.041304
6.419922 10.016404 -1.040870
6.372417 10.016048 -1.038607
6.325362 10.016079 -1.036405
6.270189 10.002843 -1.032854
6.234332 10.020139 -1.032476
6.180984 10.009056 -1.029193
6.138238 10.014791 -1.027661
6.090676 10.012383 -1.025312
6.042818 10.009137 -1.022900
5.998285 10.011083 -1.021037
5.952432 10.010528 -1.018939
5.903359 10.004204 -1.016275
5.871026 10.026061 -1.016490
5.815895 10.008718 -1.012750
5.774209 10.014123 -1.011332
5.727767 10.010994 -1.009071
5.682170 10.009005 -1.006944
5.638103 10.009399 -1.005076
5.597180 10.015129 -1.003762
5.547510 10.004875 -1.000864
5.504541 10.006343 -0.999159
5.469143 10.021413 -0.998827
5.419115 10.009405 -0.995814
5.373678 10.005461 -0.993623
5.332702 10.009532 -0.992247
5.287962 10.006257 -0.990159
5.246807 10.009477 -0.988731
5.204917 10.011047 -0.987157
5.159723 10.005947 -0.984943
5.122286 10.015642 -0.984201
5.080032 10.015718 -0.982529
5.034099 10.008193 -0.980130
4.988233 10.000392 -0.977722
4.952484 10.012630 -0.977290
4.907351 10.005659 -0.974998
4.871924 10.018250 -0.974628
4.817828 9.992052 -0.970502
4.788833 10.017632 -0.971422
4.743773 10.009481 -0.969083
4.699423 10.002423 -0.966869
4.664454 10.015101 -0.966578
4.617407 10.001568 -0.963772
4.578126 10.004492 -0.962569
4.539844 10.009392 -0.961571
4.504717 10.021129 -0.961242
4.457020 10.004585 -0.958216
4.422639 10.017633 -0.958040
4.375755 10.002068 -0.955143
4.337317 10.005429 -0.954070
4.300280 10.011845 -0.953302
4.257363 10.004294 -0.951218
4.215439 9.998688 -0.949336
4.180696 10.009904 -0.949065
4.143191 10.014388 -0.948167
4.108541 10.025662 -0.947925
4.058394 9.998705 -0.944085
4.023896 10.009888 -0.943861
3.983229 10.005531 -0.942186
3.945014 10.007046 -0.941078
3.907855 10.011031 -0.940215
3.865199 10.000613 -0.938014
3.829744 10.008543 -0.937548
3.793953 10.015486 -0.937002
3.752277 10.006617 -0.934990
3.710476 9.996968 -0.932921
3.676770 10.008898 -0.932878
3.640886 10.014827 -0.932288
3.597235 9.999036 -0.929690
3.564955 10.014594 -0.930020
3.522578 10.001561 -0.927708
3.492597 10.023566 -0.928657
3.449605 10.008050 -0.926143
3.415545 10.018135 -0.926011
3.375566 10.010636 -0.924267
3.337303 10.007864 -0.922973
3.297324 9.999570 -0.921183
3.264428 10.012562 -0.921366
3.228254 10.015428 -0.920629
3.183992 9.992726 -0.917556
3.149035 9.998789 -0.917138
3.110762 9.994090 -0.915745
3.075194 9.997825 -0.915137
3.041622 10.007967 -0.915127
3.004823 10.007361 -0.914145
2.964296 9.993924 -0.912005
2.930012 10.001215 -0.911769
2.893365 10.000272 -0.910793
2.859966 10.010430 -0.910840
2.823740 10.010578 -0.909987
2.785582 10.003548 -0.908494
2.744842 9.986693 -0.906122
2.712844 10.001373 -0.906623
2.679210 10.010091 -0.906594
2.640057 9.997902 -0.904684
2.606091 10.005046 -0.904534
2.573177 10.016238 -0.904761
2.533898 10.002381 -0.902737
2.496122 9.993903 -0.901211
2.463047 10.004028 -0.901375
2.428694 10.008943 -0.901079
2.393021 10.008242 -0.900288
2.354280 9.994256 -0.898315
2.319860 9.998222 -0.897967
2.287892 10.012805 -0.898583
2.252591 10.012783 -0.897898
2.212055 9.988889 -0.895085
2.182521 10.014462 -0.896716
2.146609 10.010889 -0.895747
2.109170 9.999716 -0.894109
2.076397 10.010426 -0.894439
2.039517 10.001122 -0.892992
2.005334 10.004716 -0.892708
1.972423 10.014650 -0.892999
1.936949 10.011461 -0.892130
1.902767 10.014717 -0.891847
1.867234 10.010616 -0.890919
1.829993 9.996786 -0.889138
1.795176 9.995690 -0.888500
1.763561 10.012488 -0.889462
1.728311 10.008673 -0.888604
1.692209 9.999432 -0.887274
1.658201 10.002200 -0.887022
1.622498 9.994411 -0.885844
1.588584 9.997305 -0.885623
1.552995 9.989317 -0.884449
1.521307 10.006395 -0.885505
1.485143 9.993901 -0.883953
1.451927 10.000892 -0.884136
1.417189 9.997244 -0.883389
1.383652 10.001869 -0.883382
1.349437 10.001468 -0.882942
1.314933 9.998608 -0.882296
1.279985 9.991895 -0.881320
1.247557 10.004793 -0.882083
1.212007 9.992439 -0.880631
1.178859 9.999516 -0.880902
1.147652 10.023729 -0.882691
1.110379 9.994586 -0.879791
1.076648 9.996257 -0.879616
1.043169 10.000220 -0.879652
1.010375 10.011003 -0.880297
0.975494 10.000896 -0.879116
0.942621 10.011159 -0.879736
0.907380 9.995870 -0.878120
0.874822 10.009855 -0.879086
0.839394 9.990570 -0.877140
0.806551 10.001491 -0.877856
0.772092 9.992215 -0.876810
0.739495 10.007051 -0.877889
0.705881 10.008654 -0.877817
0.671442 9.997893 -0.876671
0.637371 9.991515 -0.875920
0.604728 10.007834 -0.877168
0.571140 10.009274 -0.877121
0.536795 9.996574 -0.875846
0.503521 10.003197 -0.876273
0.470029 10.005882 -0.876365
0.435611 9.987516 -0.874624
0.402696 10.003166 -0.875871
0.369592 10.016305 -0.876908
0.335387 9.998986 -0.875289
0.302053 10.006438 -0.875847
0.268117 9.993055 -0.874592
0.234513 9.989757 -0.874230
0.201222 10.000606 -0.875115
0.167808 10.008262 -0.875731
0.134173 10.002912 -0.875219
0.100525 9.992450 -0.874269
0.066951 9.982143 -0.873343
0.033544 10.000690 -0.874951
0.000013 9.998564 -0.874760
-0.033538 10.006862 -0.875491
-0.067055 10.001684 -0.875052
-0.100613 10.003794 -0.875261
-0.133994 9.991575 -0.874227
-0.167331 9.981373 -0.873378
-0.201092 9.995481 -0.874667
-0.234464 9.988781 -0.874144
-0.268187 9.996668 -0.874908
-0.301708 9.995911 -0.874926
-0.335225 9.994949 -0.874935
-0.368921 9.998834 -0.875378
-0.402535 9.999837 -0.875580
-0.435608 9.988047 -0.874670
-0.470046 10.006808 -0.876446
-0.503789 10.009046 -0.876785
-0.537122 10.003158 -0.876422
-0.569998 9.989742 -0.875409
-0.603944 9.995314 -0.876070
-0.637663 9.996520 -0.876358
-0.670638 9.986316 -0.875656
-0.705489 10.003469 -0.877363
-0.739009 10.000843 -0.877345
-0.773281 10.007945 -0.878190
-0.806003 9.995021 -0.877288
-0.839276 9.989483 -0.877044
-0.873792 9.998376 -0.878077
-0.907778 10.000548 -0.878531
-0.941064 9.994916 -0.878308
-0.975238 9.998553 -0.878910
-1.009524 10.002837 -0.879579
-1.042775 9.996699 -0.879342
-1.077050 10.000238 -0.879966
-1.109741 9.989087 -0.879307
-1.144030 9.992330 -0.879925
-1.178796 9.999207 -0.880874
-1.213266 10.003041 -0.881565
-1.246620 9.997496 -0.881440
-1.278821 9.983024 -0.880537
-1.315549 10.003496 -0.882727
-1.348579 9.995308 -0.882398
-1.381602 9.987242 -0.882090
-1.417104 9.996834 -0.883352
-1.452221 10.003102 -0.884331
-1.484126 9.987239 -0.883364
-1.519813 9.996744 -0.884650
-1.552905 9.988914 -0.884413
-1.588200 9.995058 -0.885424
-1.624272 10.005507 -0.886827
-1.657064 9.995506 -0.886428
-1.692675 10.002349 -0.887533
-1.726889 10.000598 -0.887886
-1.761283 9.999709 -0.888327
-1.798804 10.016045 -0.890309
-1.829067 9.991879 -0.888701
-1.865362 10.000728 -0.890039
-1.900301 10.001882 -0.890704
-1.932748 9.989892 -0.890208
-1.968515 9.994950 -0.891242
-2.002087 9.988653 -0.891274
-2.039349 10.000434 -0.892930
-2.072248 9.990554 -0.892663
-2.107148 9.990262 -0.893264
-2.143800 9.997915 -0.894585
-2.180062 10.003304 -0.895717
-2.214208 9.998735 -0.895967
-2.246002 9.983623 -0.895283
-2.284174 9.996653 -0.897133
-2.321228 10.004238 -0.898507
-2.357903 10.009753 -0.899707
-2.392512 10.006230 -0.900107
-2.422004 9.981489 -0.898607
-2.459359 9.989166 -0.900035
-2.497503 9.999544 -0.901720
-2.533958 10.002728 -0.902768
-2.569995 10.003963 -0.903652
-2.605789 10.003996 -0.904439
-2.641157 10.002173 -0.905070
-2.675466 9.996209 -0.905336
-2.707788 9.982836 -0.904942
-2.743978 9.983652 -0.905845
-2.780996 9.987180 -0.907006
-2.814354 9.977405 -0.906970
-2.853970 9.989542 -0.908938
-2.892581 9.997663 -0.910555
-2.930732 10.003772 -0.912001
-2.962972 9.989559 -0.911606
-3.003797 10.004041 -0.913841
-3.039423 10.000827 -0.914473
-3.072687 9.989768 -0.914399
-3.107592 9.984000 -0.914820
-3.144486 9.984437 -0.915821
-3.182422 9.987892 -0.917111
-3.219147 9.987266 -0.918039
-3.256783 9.989201 -0.919216
-3.297287 9.999546 -0.921180
-3.332530 9.993640 -0.921660
-3.372648 10.002071 -0.923475
-3.407305 9.994054 -0.923785
-3.442225 9.986727 -0.924169
-3.486803 10.007025 -0.927124
-3.521120 9.997507 -0.927331
-3.558483 9.996496 -0.928338
-3.597257 9.999181 -0.929703
-3.633200 9.993768 -0.930327
-3.668321 9.985979 -0.930741
-3.705277 9.983041 -0.931620
-3.748035 9.995384 -0.933939
-3.784947 9.991792 -0.934784
-3.823595 9.992551 -0.936049
-3.863733 9.996898 -0.937665
-3.902179 9.996570 -0.938856
-3.935962 9.984161 -0.938925
-3.978739 9.994329 -0.941130
-4.014571 9.986769 -0.941680
-4.055862 9.992542 -0.943502
-4.097147 9.997931 -0.945302
-4.133912 9.992036 -0.946050
-4.173582 9.992945 -0.947456
-4.218268 10.005474 -0.949979
-4.252096 9.991991 -0.950047
-4.292830 9.994574 -0.951656
-4.331868 9.992932 -0.952877
-4.371527 9.992476 -0.954226
-4.409270 9.987423 -0.955150
-4.447996 9.984401 -0.956282
-4.490461 9.989484 -0.958205
-4.532253 9.992725 -0.959968
-4.571789 9.990712 -0.961242
-4.612427 9.990852 -0.962738
-4.652338 9.989157 -0.964072
-4.690094 9.982635 -0.964955
-4.734200 9.989352 -0.967133
-4.776405 9.991704 -0.968906
-4.818285 9.993069 -0.970600
-4.861509 9.996900 -0.972549
-4.906792 10.004587 -0.974892
-4.949267 10.006193 -0.976660
-4.984365 9.992704 -0.976969
-5.027668 9.995475 -0.978883
-5.068635 9.993312 -0.980330
-5.114390 10.000269 -0.982689
-5.154744 9.996358 -0.983997
-5.195085 9.992202 -0.985297
-5.237995 9.992731 -0.987076
-5.283169 9.997252 -0.989266
-5.321790 9.989114 -0.990221
-5.367358 9.993756 -0.992460
-5.413451 9.999008 -0.994778
-5.452195 9.990420 -0.995737
-5.493839 9.986952 -0.997221
-5.545383 10.001102 -1.000485
-5.582157 9.988310 -1.001072
-5.628178 9.991841 -1.003312
-5.668091 9.984267 -1.004454
-5.717649 9.993372 -1.007293
-5.762528 9.993926 -1.009290
-5.802356 9.985481 -1.010397
-5.851158 9.992192 -1.013055
-5.898584 9.996172 -1.015458
-5.942074 9.993170 -1.017171
-5.988704 9.995152 -1.019411
-6.030555 9.988884 -1.020828
-6.077811 9.991293 -1.023151
-6.117638 9.981239 -1.024216
-6.173047 9.996262 -1.027876
-6.210168 9.981359 -1.028479
-6.259585 9.985986 -1.031112
-6.308286 9.989099 -1.033612
-6.349818 9.980585 -1.034928
-6.408366 9.998433 -1.039001
-6.452890 9.993986 -1.040781
-6.504262 9.999814 -1.043653
-6.548471 9.994308 -1.045364
-6.594347 9.991090 -1.047334
-6.640141 9.987474 -1.049283
-6.687784 9.986349 -1.051515
-6.739434 9.990858 -1.054363
-6.783888 9.984387 -1.056074
-6.836515 9.989627 -1.059047
-6.883008 9.985563 -1.061057
-6.933978 9.987679 -1.063746
-6.977573 9.978887 -1.065295
-7.030502 9.983140 -1.068260
-7.083930 9.987705 -1.071284
-7.132384 9.984906 -1.073543
-7.182749 9.984468 -1.076079
-7.241392 9.995122 -1.079838
-7.292286 9.994667 -1.082424
-7.330462 9.976565 -1.083119
-7.387989 9.984528 -1.086667
-7.450526 9.998756 -1.090928
-7.497478 9.991673 -1.092891
-7.546332 9.986853 -1.095126
-7.605398 9.995171 -1.098828
-7.657382 9.993779 -1.101491
-7.704396 9.985612 -1.103432
-7.761091 9.989661 -1.106748
-7.812907 9.987061 -1.109356
-7.862952 9.981888 -1.111704
-7.921266 9.986850 -1.115208
-7.977357 9.988598 -1.118384
-8.029548 9.985106 -1.121001
-8.085052 9.985387 -1.124069
-8.149921 9.996783 -1.128422
-8.200397 9.990118 -1.130767
-8.258682 9.992618 -1.134178
-8.316999 9.994746 -1.137578
-8.379550 10.001521 -1.141540
-8.417048 9.978126 -1.142085
-8.478945 9.983395 -1.145935
-8.534678 9.980998 -1.148938
-8.587814 9.975233 -1.151583
-8.651860 9.981744 -1.155676
-8.717112 9.989158 -1.159912
-8.774425 9.987044 -1.163076
-8.822728 9.974378 -1.165040
-8.897158 9.990823 -1.170438
-8.948551 9.980952 -1.172790
-9.020998 9.994137 -1.177887
-9.079780 9.991702 -1.181181
-9.145030 9.995963 -1.185303
-9.197318 9.985683 -1.187734
-9.269119 9.996174 -1.192671
-9.308499 9.971378 -1.193430
-9.390695 9.992055 -1.199666
-9.447079 9.984754 -1.202586
-9.512873 9.987006 -1.206692
-9.575770 9.985784 -1.210417
-9.632571 9.977835 -1.213361
-9.704819 9.985453 -1.218237
-9.762978 9.978138 -1.221332
-9.837255 9.986846 -1.226428
-9.891778 9.975080 -1.229049
-9.960782 9.977534 -1.233459
-10.037137 9.986824 -1.238761
-10.097602 9.979837 -1.242087
-10.165334 9.979627 -1.246295
-10.239896 9.985625 -1.251325
-10.310794 9.987538 -1.255890
-10.381970 9.989232 -1.260473
-10.442410 9.980177 -1.263741
-10.514280 9.981628 -1.268381
-10.581277 9.977994 -1.272421
-10.661131 9.985978 -1.277990
-10.735620 9.988387 -1.282898
-10.798495 9.979549 -1.286405
-10.884454 9.991535 -1.292647
-10.936126 9.971611 -1.294806
-11.014401 9.975557 -1.300107
-11.106648 9.991526 -1.307034
-11.172523 9.983214 -1.310839
-11.248775 9.983725 -1.315851
-11.313580 9.973629 -1.319513
-11.410441 9.991230 -1.326895
-11.467846 9.973764 -1.329674
-11.553236 9.980191 -1.335688
-11.633469 9.981584 -1.341087
-11.706822 9.976571 -1.345680
-11.784131 9.974443 -1.350714
-11.864805 9.974641 -1.356120
-11.960306 9.986677 -1.363201
-12.030054 9.976650 -1.367331
-12.118411 9.981541 -1.373562
-12.197040 9.977855 -1.378674
-12.289367 9.984794 -1.385319
-12.370852 9.982328 -1.390723
-12.453175 9.980002 -1.396209
-12.537855 9.979014 -1.401943
-12.629455 9.982935 -1.408435
-12.722198 9.987121 -1.415036
-12.806626 9.984181 -1.420695
-12.881601 9.973372 -1.425295
-12.981100 9.980976 -1.432593
-13.068704 9.978791 -1.438561
-13.153044 9.973557 -1.444156
-13.251325 9.978283 -1.451265
-13.333415 9.970220 -1.456586
-13.438882 9.979008 -1.464445
-13.536664 9.981379 -1.471445
-13.630979 9.980546 -1.478051
-13.726645 9.980070 -1.484788
-13.823639 9.979914 -1.491652
-13.916292 9.975997 -1.498032
-14.024386 9.982471 -1.506056
-14.111091 9.973074 -1.511768
-14.114902 9.904972 -1.508610
-14.108179 9.829823 -1.504361
-14.117466 9.766147 -1.501851
-14.109921 9.691141 -1.497583
-14.121219 9.629379 -1.495347
-14.118279 9.558187 -1.491634
-14.117172 9.488566 -1.488147
-14.120837 9.422451 -1.485195
-14.124462 9.356580 -1.482269
-14.125412 9.289217 -1.479091
-14.113168 9.213531 -1.474566
-14.110771 9.144639 -1.471104
-14.110968 9.077730 -1.467943
-14.121840 9.017926 -1.465921
-14.117095 8.948404 -1.462306
-14.122671 8.885704 -1.459789
-14.117380 8.816442 -1.456178
-14.121629 8.753420 -1.453581
-14.132493 8.694701 -1.451691
-14.107747 8.614406 -1.446174
-14.102256 8.546274 -1.442666
-14.119533 8.492148 -1.441512
-14.116436 8.425964 -1.438304
-14.125446 8.367238 -1.436355
-14.102265 8.289760 -1.431164
-14.120664 8.236997 -1.430220
-14.111839 8.168558 -1.426544
-14.109668 8.104265 -1.423570
-14.111712 8.042637 -1.421048
-14.114450 7.981622 -1.418620
-14.112515 7.918199 -1.415750
-14.118386 7.859371 -1.413687
-14.119599 7.798151 -1.411183
-14.093744 7.722317 -1.406003
-14.101859 7.665401 -1.404241
-14.101431 7.604030 -1.401652
-14.099419 7.542036 -1.398930
-14.110972 7.487476 -1.397578
-14.110415 7.426658 -1.395049
-14.117537 7.370067 -1.393302
-14.122109 7.312305 -1.391326
-14.123041 7.252844 -1.389014
-14.123386 7.193283 -1.386668
-14.109842 7.126906 -1.382984
-14.122499 7.073969 -1.381892
-14.111918 7.009582 -1.378550
-14.110929 6.950205 -1.376169
-14.112345 6.892204 -1.374046
-14.109347 6.832246 -1.371516
-14.116192 6.777228 -1.369964
-14.114734 6.718389 -1.367629
-14.104494 6.655603 -1.364467
-14.111687 6.601240 -1.363014
-14.118162 6.546665 -1.361512
-14.115600 6.488062 -1.359159
-14.100015 6.423724 -1.355577
-14.106421 6.369617 -1.354132
-14.116772 6.317395 -1.353085
-14.109136 6.257284 -1.350335
-14.107692 6.200124 -1.348199
-14.103934 6.142134 -1.345865
-14.118257 6.092139 -1.345275
-14.122290 6.037795 -1.343723
-14.120863 5.981266 -1.341671
-14.114570 5.922865 -1.339179
-14.113562 5.866868 -1.337209
-14.112864 5.811161 -1.335290
-14.116068 5.757203 -1.333759
-14.106492 5.698208 -1.331042
-14.102269 5.641580 -1.328851
-14.098399 5.585270 -1.326714
-14.111361 5.535739 -1.326180
-14.106956 5.479506 -1.324032
-14.103596 5.423850 -1.322002
-14.108168 5.371380 -1.320735
-14.122751 5.322787 -1.320422
-14.101754 5.260944 -1.316803
-14.103009 5.207613 -1.315282
-14.109624 5.156365 -1.314279
-14.102533 5.100241 -1.312019
-14.095472 5.044311 -1.309781
-14.116349 4.998455 -1.310156
-14.114123 4.944475 -1.308403
-14.089675 4.882934 -1.304612
-14.101477 4.834127 -1.304197
-14.107278 4.783319 -1.303243
-14.109900 4.731521 -1.302012
-14.107718 4.678228 -1.300356
-14.110087 4.626562 -1.299137
-14.092186 4.568421 -1.296072
-14.123715 4.526368 -1.297568
-14.105659 4.468486 -1.294526
-14.101192 4.415102 -1.292750
-14.115035 4.367527 -1.292669
-14.111526 4.314651 -1.291016
-14.115966 4.264308 -1.290107
-14.116757 4.212949 -1.288881
-14.109658 4.159362 -1.286952
-14.111159 4.108431 -1.285826
-14.107291 4.056046 -1.284227
-14.097252 4.002036 -1.282084
-14.107157 3.953786 -1.281772
-14.104783 3.902163 -1.280360
-14.106035 3.851641 -1.279295
-14.115191 3.803333 -1.278961
-14.093676 3.746898 -1.275866
-14.096656 3.697131 -1.275007
-14.095319 3.646314 -1.273773
-14.104431 3.598261 -1.273499
-14.110173 3.549381 -1.272936
-14.108580 3.498726 -1.271727
-14.114041 3.449890 -1.271169
-14.117500 3.400615 -1.270447
-14.119975 3.351162 -1.269651
-14.102258 3.297051 -1.267057
-14.093234 3.245146 -1.265262
-14.110024 3.199233 -1.265799
-14.100327 3.147366 -1.263975
-14.102930 3.098343 -1.263270
-14.088923 3.045785 -1.261094
-14.106998 3.000219 -1.261804
-14.094007 2.948100 -1.259751
-14.102091 2.900474 -1.259597
-14.111536 2.853136 -1.259579
-14.117427 2.805092 -1.259258
-14.109982 2.754470 -1.257764
-14.086394 2.700868 -1.254847
-14.104855 2.655409 -1.255691
-14.108744 2.607191 -1.255252
-14.098950 2.556526 -1.253611
-14.100373 2.507983 -1.252983
-14.120031 2.462669 -1.253989
-14.105452 2.411423 -1.251969
-14.094572 2.360953 -1.250294
-14.093315 2.312191 -1.249488
-14.124168 2.268649 -1.251541
-14.109606 2.217809 -1.249585
-14.096794 2.167389 -1.247800
-14.109994 2.121016 -1.248332
-14.097633 2.070848 -1.246617
-14.109208 2.024245 -1.247033
-14.107779 1.975789 -1.246315
-14.097279 1.926148 -1.244809
-14.119230 1.880946 -1.246184
-14.103612 1.830761 -1.244257
-14.098697 1.782076 -1.243289
-14.108979 1.735336 -1.243676
-14.096640 1.685859 -1.242083
-14.104263 1.638825 -1.242263
-14.105031 1.591002 -1.241854
-14.115452 1.544267 -1.242309
-14.118193 1.496682 -1.242101
-14.102355 1.447206 -1.240274
-14.092985 1.398512 -1.239031
-14.103959 1.351863 -1.239590
-14.090549 1.302915 -1.238020
-14.089203 1.255163 -1.237525
-14.104175 1.208847 -1.238477
-14.103149 1.161140 -1.238039
-14.099423 1.113253 -1.237377
-14.097741 1.065571 -1.236909
-14.105354 1.018595 -1.237270
-14.105596 0.971084 -1.236999
-14.097637 0.923056 -1.236023
-14.099261 0.875697 -1.235901
-14.104053 0.828534 -1.236070
-14.090611 0.780347 -1.234656
-14.086106 0.732733 -1.234039
-14.092664 0.685705 -1.234405
-14.102246 0.638784 -1.235050
-14.105171 0.591535 -1.235126
-14.111526 0.544411 -1.235515
-14.092904 0.496377 -1.233732
-14.098056 0.449237 -1.234044
-14.101321 0.402019 -1.234205
-14.106125 0.354827 -1.234515
-14.090480 0.307164 -1.233048
-14.113250 0.260322 -1.234958
-14.099160 0.212777 -1.233655
-14.091389 0.165405 -1.232920
-14.104349 0.118263 -1.234012
-14.095286 0.070926 -1.233191
-14.111828 0.023695 -1.234625
-14.079026 0.000037 -1.231753
-14.108137 -0.023688 -0.739376
-14.090440 -0.070902 -0.738457
-14.093387 -0.118172 -0.738628
-14.092305 -0.165416 -0.738596
-14.084860 -0.212561 -0.738239
-14.099644 -0.260071 -0.739056
-14.093216 -0.307224 -0.738769
-14.096362 -0.354581 -0.738992
-14.113216 -0.402358 -0.739942
-14.101817 -0.449357 -0.739419
-14.104111 -0.496772 -0.739622
-14.109094 -0.544317 -0.739975
-14.099678 -0.591304 -0.739581
-14.103319 -0.638833 -0.739880
-14.084208 -0.685293 -0.738994
-14.099793 -0.733445 -0.739937
-14.101559 -0.780954 -0.740163
-14.085762 -0.827460 -0.739475
-14.099053 -0.875684 -0.740323
-14.113979 -0.924126 -0.741265
-14.109845 -0.971376 -0.741215
-14.093865 -1.017765 -0.740550
-14.093891 -1.065280 -0.740735
-14.118046 -1.114723 -0.742197
-14.096927 -1.160628 -0.741287
-14.092132 -1.207815 -0.741244
-14.100586 -1.256177 -0.741906
-14.092108 -1.303060 -0.741686
-14.107021 -1.352156 -0.742705
-14.093410 -1.398554 -0.742231
-14.088472 -1.445781 -0.742222
-14.107853 -1.495586 -0.743503
-14.092450 -1.541751 -0.742960
-14.093141 -1.589661 -0.743273
-14.089739 -1.637137 -0.743379
-14.090674 -1.685146 -0.743722
-14.091128 -1.733140 -0.744048
-14.094172 -1.781505 -0.744520
-14.114717 -1.832202 -0.745926
-14.096743 -1.877950 -0.745305
-14.098193 -1.926273 -0.745719
-14.082957 -1.972312 -0.745258
-14.089174 -2.021371 -0.745942
-14.099374 -2.071103 -0.746845
-14.105085 -2.120278 -0.747520
-14.107508 -2.169036 -0.748030
-14.094120 -2.215375 -0.747710
-14.094380 -2.263865 -0.748122
-14.086766 -2.311117 -0.748125
-14.079668 -2.358456 -0.748164
-14.089651 -2.408722 -0.749119
-14.096949 -2.458643 -0.749941
-14.107320 -2.509219 -0.750936
-14.096792 -2.556135 -0.750828
-14.095139 -2.604677 -0.751200
-14.095687 -2.653683 -0.751700
-14.096157 -2.702739 -0.752204
-14.087836 -2.750146 -0.752248
-14.091739 -2.799988 -0.752953
-14.084056 -2.847580 -0.753048
-14.084046 -2.896763 -0.753563
-14.104869 -2.950372 -0.755202
-14.096133 -2.997909 -0.755268
-14.082015 -3.044291 -0.755054
-14.094533 -3.096498 -0.756278
-14.084515 -3.143836 -0.756302
-14.094278 -3.195663 -0.757397
-14.101988 -3.247161 -0.758392
-14.090400 -3.294279 -0.758359
-14.083647 -3.342540 -0.758594
-14.088631 -3.393661 -0.759471
-14.083642 -3.442459 -0.759820
-14.085815 -3.493080 -0.760565
-14.089784 -3.544252 -0.761417
-14.096961 -3.596355 -0.762452
-14.095200 -3.646284 -0.763014
-14.103125 -3.698827 -0.764110
-14.078652 -3.742903 -0.763460
-14.085628 -3.795367 -0.764524
-14.114538 -3.853963 -0.766790
-14.098843 -3.900519 -0.766643
-14.086808 -3.948083 -0.766704
-14.103732 -4.003876 -0.768352
-14.094735 -4.052436 -0.768597
-14.099019 -4.104897 -0.769577
-14.102214 -4.157167 -0.770508
-14.083058 -4.202892 -0.770227
-14.101508 -4.259941 -0.772013
-14.092632 -4.308874 -0.772314
-14.096119 -4.361673 -0.773302
-14.105087 -4.416322 -0.774602
-14.070487 -4.457344 -0.773518
-14.101134 -4.519131 -0.776031
-14.072064 -4.561898 -0.775269
-14.100707 -4.623486 -0.777697
-14.097827 -4.674949 -0.778398
-14.104906 -4.729846 -0.779660
-14.086577 -4.776300 -0.779528
-14.075732 -4.825302 -0.779818
-14.093111 -4.884125 -0.781684
-14.084957 -4.934257 -0.782145
-14.095098 -4.990931 -0.783633
-14.077296 -5.037807 -0.783578
-14.094582 -5.097365 -0.785487
-14.090771 -5.149475 -0.786232
-14.092796 -5.203842 -0.787315
-14.096711 -5.259063 -0.788514
-14.080066 -5.306699 -0.788574
-14.090472 -5.364643 -0.790159
-14.074347 -5.412601 -0.790268
-14.080905 -5.469387 -0.791662
-14.083779 -5.524920 -0.792860
-14.085725 -5.580249 -0.794019
-14.087000 -5.635471 -0.795151
-14.086255 -5.690034 -0.796182
-14.085194 -5.744611 -0.797206
-14.077031 -5.796406 -0.797839
-14.098714 -5.860695 -0.800177
-14.091248 -5.913079 -0.800874
-14.076046 -5.962283 -0.801142
-14.098591 -6.027663 -0.803571
-14.096674 -6.082827 -0.804619
-14.084990 -6.133884 -0.805122
-14.091295 -6.192918 -0.806665
-14.085398 -6.246757 -0.807522
-14.093013 -6.306763 -0.809166
-14.104439 -6.368722 -0.811043
-14.086954 -6.417774 -0.811271
-14.092902 -6.477630 -0.812859
-14.096778 -6.536749 -0.814343
-14.098157 -6.594910 -0.815695
-14.087365 -6.647521 -0.816356
-14.089066 -6.706172 -0.817752
-14.098166 -6.768574 -0.819593
-14.086836 -6.821345 -0.820260
-14.080465 -6.876634 -0.821226
-14.088583 -6.939198 -0.823052
-14.085166 -6.996294 -0.824218
-14.084611 -7.054991 -0.825566
-14.098464 -7.121160 -0.827772
-14.080880 -7.171634 -0.828147
-14.088990 -7.235358 -0.830046
-14.098734 -7.300202 -0.832057
-14.084872 -7.353014 -0.832690
-14.085999 -7.413807 -0.834221
-14.092854 -7.477862 -0.836107
-14.097743 -7.541140 -0.837893
-14.077784 -7.591278 -0.838214
-14.087809 -7.657763 -0.840335
-14.090523 -7.720552 -0.842037
-14.097726 -7.786070 -0.844022
-14.090785 -7.844006 -0.845177
-14.081984 -7.901068 -0.846233
-14.100871 -7.973943 -0.848970
-14.091904 -8.031347 -0.850046
-14.074636 -8.084145 -0.850635
-14.078585 -8.149309 -0.852520
-14.086871 -8.217284 -0.854685
-14.080412 -8.276914 -0.855972
-14.075737 -8.337792 -0.857383
-14.088620 -8.409362 -0.859880
-14.091203 -8.475110 -0.861767
-14.102119 -8.546191 -0.864182
-14.090981 -8.604168 -0.865263
-14.090246 -8.668709 -0.866998
-14.091036 -8.734457 -0.868843
-14.099836 -8.805487 -0.871201
-14.087645 -8.863666 -0.872279
-14.091921 -8.932447 -0.874394
-14.085797 -8.994909 -0.875880
-14.096940 -9.068707 -0.878459
-14.076328 -9.122318 -0.879075
-14.090235 -9.198560 -0.881865
-14.086324 -9.263512 -0.883559
-14.081235 -9.327944 -0.885197
-14.079026 -9.394551 -0.887033
-14.084614 -9.466682 -0.889380
-14.080131 -9.532359 -0.891110
-14.092217 -9.609604 -0.893909
-14.089554 -9.677152 -0.895793
-14.083751 -9.742823 -0.897496
-14.082527 -9.811951 -0.899509
-13.998486 -9.823277 -0.896240
-13.899617 -9.823614 -0.892013
-13.805839 -9.826910 -0.888105
-13.704092 -9.823880 -0.883673
-13.608811 -9.824820 -0.879649
-13.511790 -9.823857 -0.875501
-13.416089 -9.823205 -0.871430
-13.321058 -9.822400 -0.867391
-13.224151 -9.819559 -0.863220
-13.140479 -9.825951 -0.859904
-13.044611 -9.822626 -0.855781
-12.956864 -9.824800 -0.852181
-12.860655 -9.819932 -0.848013
-12.772753 -9.820780 -0.844384
-12.691064 -9.825852 -0.841157
-12.597651 -9.821262 -0.837143
-12.516300 -9.825488 -0.833922
-12.420929 -9.818107 -0.829756
-12.351703 -9.830853 -0.827329
-12.254678 -9.820926 -0.823031
-12.166615 -9.817525 -0.819322
-12.070722 -9.807150 -0.815075
-12.013995 -9.828115 -0.813465
-11.922042 -9.819798 -0.809463
-11.836780 -9.816366 -0.805904
-11.757525 -9.817358 -0.802745
-11.674625 -9.814757 -0.799327
-11.605295 -9.823071 -0.796831
-11.521311 -9.818478 -0.793320
-11.438418 -9.814230 -0.789874
-11.364447 -9.817106 -0.787034
-11.288735 -9.817989 -0.784066
-11.208678 -9.814562 -0.780787
-11.132404 -9.813911 -0.777762
-11.061224 -9.817266 -0.775084
-10.983215 -9.814058 -0.771919
-10.910314 -9.814902 -0.769104
-10.828356 -9.807059 -0.765640
-10.771126 -9.821164 -0.763917
-10.686622 -9.809934 -0.760253
-10.632454 -9.826100 -0.758739
-10.562366 -9.827191 -0.756084
-10.481128 -9.817374 -0.752621
-10.406996 -9.813649 -0.749656
-10.342111 -9.818181 -0.747349
-10.274937 -9.820117 -0.744870
-10.209454 -9.823241 -0.742506
-10.140940 -9.823009 -0.739915
-10.071389 -9.821303 -0.737239
-9.993084 -9.810524 -0.733910
-9.937966 -9.822063 -0.732277
-9.866846 -9.817387 -0.729457
-9.804766 -9.821255 -0.727298
-9.728258 -9.810184 -0.724059
-9.667136 -9.814141 -0.721955
-9.605467 -9.817156 -0.719803
-9.542614 -9.818558 -0.717556
-9.480144 -9.819943 -0.715330
-9.416210 -9.819392 -0.712986
-9.354622 -9.820868 -0.710812
-9.274817 -9.802689 -0.707242
-9.215689 -9.805841 -0.705236
-9.158051 -9.810216 -0.703338
-9.103997 -9.818100 -0.701711
-9.042881 -9.818009 -0.699534
-8.984721 -9.820739 -0.697578
-8.915281 -9.810683 -0.694737
-8.855508 -9.810795 -0.692638
-8.804923 -9.820753 -0.691253
-8.736770 -9.810719 -0.688481
-8.676823 -9.809427 -0.686345
-8.624862 -9.816812 -0.684835
-8.565712 -9.815665 -0.682747
-8.513977 -9.822667 -0.681245
-8.454042 -9.819849 -0.679080
-8.391735 -9.813832 -0.676714
-8.340225 -9.820062 -0.675212
-8.285017 -9.821609 -0.673404
-8.225344 -9.817467 -0.671226
-8.166767 -9.814209 -0.669127
-8.113171 -9.816555 -0.667429
-8.051887 -9.809195 -0.665089
-7.993659 -9.805110 -0.662991
-7.948266 -9.816450 -0.661952
-7.887259 -9.808164 -0.659607
-7.843232 -9.820658 -0.658675
-7.790335 -9.821777 -0.656994
-7.724528 -9.806161 -0.654213
-7.674845 -9.810578 -0.652788
-7.618847 -9.806572 -0.650818
-7.567488 -9.808166 -0.649236
-7.519652 -9.814026 -0.647951
-7.462141 -9.806899 -0.645825
-7.420093 -9.819787 -0.645032
-7.357203 -9.804731 -0.642419
-7.314084 -9.815648 -0.641524
-7.254603 -9.804262 -0.639187
-7.210116 -9.812778 -0.638162
-7.159165 -9.812213 -0.636561
-7.104481 -9.806147 -0.634618
-7.061026 -9.815265 -0.633673
-7.013231 -9.818099 -0.632334
-6.961904 -9.815659 -0.630670
-6.913375 -9.816823 -0.629252
-6.857798 -9.807590 -0.627183
-6.815876 -9.817565 -0.626356
-6.762918 -9.811341 -0.624509
-6.708745 -9.802927 -0.622538
-6.661651 -9.804482 -0.621215
-6.615957 -9.807810 -0.620017
-6.563566 -9.800863 -0.618183
-6.520442 -9.807432 -0.617215
-6.484107 -9.824065 -0.616890
-6.432559 -9.817403 -0.615114
-6.387552 -9.820381 -0.613955
-6.338028 -9.816092 -0.612355
-6.293261 -9.818844 -0.611207
-6.238843 -9.806156 -0.609112
-6.196541 -9.812152 -0.608190
-6.145252 -9.803589 -0.606379
-6.109357 -9.819331 -0.606082
-6.061343 -9.815376 -0.604580
-6.013472 -9.811287 -0.603083
-5.970409 -9.814735 -0.602061
-5.917455 -9.801548 -0.600032
-5.875130 -9.805595 -0.599070
-5.835742 -9.814343 -0.598406
-5.792476 -9.816354 -0.597341
-5.743090 -9.807641 -0.595636
-5.693529 -9.798197 -0.593900
-5.657714 -9.812147 -0.593592
-5.616149 -9.815969 -0.592681
-5.568906 -9.809554 -0.591163
-5.531317 -9.819883 -0.590664
-5.479246 -9.804169 -0.588611
-5.443521 -9.817394 -0.588306
-5.396404 -9.809829 -0.586765
-5.360220 -9.821888 -0.586408
-5.311074 -9.809910 -0.584626
-5.277130 -9.825756 -0.584513
-5.220844 -9.799636 -0.581914
-5.184109 -9.809802 -0.581483
-5.143448 -9.812361 -0.580609
-5.104175 -9.817344 -0.579888
-5.055424 -9.803751 -0.578081
-5.012730 -9.801491 -0.576953
-4.976474 -9.811609 -0.576563
-4.928710 -9.798736 -0.574832
-4.891830 -9.807190 -0.574363
-4.848445 -9.802356 -0.573125
-4.808745 -9.804677 -0.572314
-4.769133 -9.806943 -0.571510
-4.725177 -9.799963 -0.570177
-4.690458 -9.811913 -0.569954
-4.652239 -9.816411 -0.569306
-4.607223 -9.806248 -0.567818
-4.564548 -9.800661 -0.566605
-4.526405 -9.804522 -0.565947
-4.490348 -9.812738 -0.565549
-4.450805 -9.813149 -0.564710
-4.410972 -9.812653 -0.563827
-4.369259 -9.807660 -0.562695
-4.335445 -9.820203 -0.562578
-4.291638 -9.809866 -0.561158
-4.253747 -9.812720 -0.560502
-4.213580 -9.810063 -0.559541
-4.172054 -9.803900 -0.558388
-4.133959 -9.805496 -0.557686
-4.094805 -9.804326 -0.556836
-4.056483 -9.804882 -0.556092
-4.018228 -9.805353 -0.555351
-3.981668 -9.809748 -0.554841
-3.940873 -9.803434 -0.553733
-3.900533 -9.797882 -0.552678
-3.864652 -9.803274 -0.552248
-3.824638 -9.797924 -0.551221
-3.792142 -9.811666 -0.551276
-3.753780 -9.810098 -0.550478
-3.708475 -9.789915 -0.548644
-3.675297 -9.801404 -0.548595
-3.641682 -9.811700 -0.548484
-3.599980 -9.799940 -0.547149
-3.567264 -9.812398 -0.547174
-3.528831 -9.808978 -0.546320
-3.493213 -9.813141 -0.545897
-3.456847 -9.815017 -0.545353
-3.415804 -9.803260 -0.544061
-3.381134 -9.809484 -0.543774
-3.344260 -9.809134 -0.543130
-3.304353 -9.799534 -0.541982
-3.271896 -9.811809 -0.542051
-3.230003 -9.795499 -0.540549
-3.201771 -9.820469 -0.541331
-3.162542 -9.811650 -0.540257
-3.123367 -9.802551 -0.539177
-3.089256 -9.809070 -0.538963
-3.047671 -9.791488 -0.537432
-3.013082 -9.795985 -0.537121
-2.982145 -9.812363 -0.537468
-2.944369 -9.806118 -0.536582
-2.916038 -9.831322 -0.537423
-2.872757 -9.805877 -0.535503
-2.840125 -9.816359 -0.535552
-2.802097 -9.807976 -0.534579
-2.767131 -9.809992 -0.534181
-2.730290 -9.805085 -0.533412
-2.696255 -9.810017 -0.533185
-2.662035 -9.814158 -0.532923
-2.623551 -9.802240 -0.531795
-2.586453 -9.795009 -0.530929
-2.555239 -9.809925 -0.531270
-2.520335 -9.810658 -0.530849
-2.482203 -9.798429 -0.529734
-2.451843 -9.816730 -0.530276
-2.414571 -9.807251 -0.529324
-2.377935 -9.799873 -0.528492
-2.343428 -9.800947 -0.528124
-2.309674 -9.805011 -0.527922
-2.274336 -9.802139 -0.527354
-2.237724 -9.793365 -0.526475
-2.206073 -9.806132 -0.526761
-2.172748 -9.811515 -0.526656
-2.134622 -9.794803 -0.525372
-2.102873 -9.807050 -0.525648
-2.067627 -9.802888 -0.525050
-2.031747 -9.795295 -0.524276
-1.999465 -9.804853 -0.524425
-1.967524 -9.816212 -0.524677
-1.928799 -9.793297 -0.523104
-1.896920 -9.804705 -0.523370
-1.863945 -9.810530 -0.523345
-1.828755 -9.804466 -0.522691
-1.794917 -9.805326 -0.522413
-1.762204 -9.812247 -0.522464
-1.726970 -9.804897 -0.521762
-1.693962 -9.809915 -0.521724
-1.658803 -9.802192 -0.521014
-1.625134 -9.802903 -0.520760
-1.591232 -9.801976 -0.520424
-1.557153 -9.799669 -0.520021
-1.525016 -9.809521 -0.520270
-1.492528 -9.817272 -0.520413
-1.455891 -9.797239 -0.519089
-1.425352 -9.818027 -0.519934
-1.390103 -9.806360 -0.519067
-1.356442 -9.805367 -0.518770
-1.324268 -9.815117 -0.519049
-1.288348 -9.796662 -0.517841
-1.255785 -9.803191 -0.517961
-1.223246 -9.810045 -0.518103
-1.189856 -9.810031 -0.517889
-1.153632 -9.785752 -0.516400
-1.123100 -9.809517 -0.517453
-1.088324 -9.796308 -0.516560
-1.055966 -9.804479 -0.516802
-1.022786 -9.805070 -0.516649
-0.988196 -9.791505 -0.515757
-0.955574 -9.796947 -0.515872
-0.922548 -9.798252 -0.515775
-0.889287 -9.796840 -0.515541
-0.857586 -9.812935 -0.516234
-0.823031 -9.796132 -0.515202
-0.790675 -9.804948 -0.515523
-0.758519 -9.816890 -0.516014
-0.723908 -9.796480 -0.514811
-0.691088 -9.799269 -0.514833
-0.658653 -9.807844 -0.515164
-0.625463 -9.805261 -0.514916
-0.593015 -9.814435 -0.515290
-0.559554 -9.806687 -0.514782
-0.527120 -9.816887 -0.515222
-0.493896 -9.812489 -0.514901
-0.459847 -9.789672 -0.513620
-0.427660 -9.805809 -0.514388
-0.394318 -9.795686 -0.513785
-0.361883 -9.808078 -0.514369
-0.328540 -9.795644 -0.513656
-0.295823 -9.800912 -0.513877
-0.262868 -9.798385 -0.513696
-0.229925 -9.795411 -0.513496
-0.197148 -9.799453 -0.513671
-0.164510 -9.813125 -0.514356
-0.131414 -9.799177 -0.513599
-0.098679 -9.811522 -0.514225
-0.065801 -9.814537 -0.514369
-0.032843 -9.799377 -0.513566
0.000013 -9.802733 -0.513739
0.032881 -9.803071 -0.513759
0.065748 -9.802824 -0.513755
0.098681 -9.809101 -0.514098
0.131441 -9.799250 -0.513602
0.164100 -9.787097 -0.512991
0.197271 -9.804254 -0.513922
0.229885 -9.792606 -0.513349
0.263170 -9.808693 -0.514236
0.296171 -9.811575 -0.514436
0.328506 -9.793839 -0.513561
0.360795 -9.777888 -0.512785
0.394359 -9.796081 -0.513806
0.427734 -9.806907 -0.514446
0.460203 -9.796716 -0.513990
0.493066 -9.795492 -0.514009
0.525537 -9.786922 -0.513649
0.558885 -9.794517 -0.514143
0.591931 -9.796052 -0.514325
0.624786 -9.794244 -0.514337
0.658780 -9.809347 -0.515243
0.691052 -9.798390 -0.514787
0.724234 -9.800538 -0.515024
0.756541 -9.790956 -0.514651
0.789120 -9.785344 -0.514492
0.823931 -9.806522 -0.515748
0.856238 -9.797210 -0.515406
0.888421 -9.787013 -0.515024
0.922725 -9.799851 -0.515859
0.956782 -9.809063 -0.516510
0.987118 -9.780565 -0.515181
1.021408 -9.791613 -0.515940
1.055314 -9.798183 -0.516470
1.090349 -9.814296 -0.517509
1.122331 -9.802576 -0.517087
1.155608 -9.802296 -0.517273
1.187963 -9.794213 -0.517054
1.221240 -9.793745 -0.517243
1.254139 -9.790138 -0.517271
1.288801 -9.799901 -0.518013
1.321807 -9.796682 -0.518074
1.355186 -9.796103 -0.518281
1.390026 -9.805631 -0.519028
1.422844 -9.800564 -0.519010
1.455320 -9.793216 -0.518876
1.490380 -9.802973 -0.519655
1.521016 -9.783621 -0.518896
1.556502 -9.795406 -0.519795
1.591853 -9.805640 -0.520619
1.622154 -9.784768 -0.519796
1.657687 -9.795435 -0.520655
1.692666 -9.802255 -0.521317
1.725591 -9.796918 -0.521338
1.758102 -9.789258 -0.521241
1.791021 -9.783895 -0.521272
1.829104 -9.806194 -0.522784
1.862206 -9.801233 -0.522849
1.894516 -9.792142 -0.522700
1.930055 -9.799535 -0.523437
1.963060 -9.793805 -0.523480
1.998620 -9.800575 -0.524197
2.033037 -9.801387 -0.524602
2.064661 -9.788696 -0.524290
2.097138 -9.780178 -0.524208
2.135110 -9.796914 -0.525485
2.169774 -9.797961 -0.525929
2.202675 -9.790909 -0.525944
2.238477 -9.796541 -0.526647
2.275203 -9.805758 -0.527549
2.305067 -9.785340 -0.526864
2.341614 -9.793244 -0.527709
2.374987 -9.787610 -0.527831
2.410674 -9.791309 -0.528464
2.446273 -9.794320 -0.529066
2.479798 -9.788825 -0.529215
2.519452 -9.807112 -0.530658
2.551741 -9.796389 -0.530537
2.586711 -9.795880 -0.530977
2.624584 -9.805995 -0.531999
2.658231 -9.800031 -0.532156
2.690898 -9.790424 -0.532121
2.728236 -9.797606 -0.533006
2.761746 -9.790802 -0.533136
2.799922 -9.800262 -0.534159
2.835412 -9.799971 -0.534659
2.868070 -9.789783 -0.534625
2.906751 -9.799914 -0.535707
2.939964 -9.791352 -0.535775
2.978776 -9.801182 -0.536856
3.015080 -9.802387 -0.537473
3.047731 -9.791588 -0.537438
3.085952 -9.798489 -0.538382
3.122415 -9.799472 -0.539008
3.155155 -9.788646 -0.538991
3.194934 -9.799412 -0.540171
3.231842 -9.800987 -0.540852
3.263276 -9.785872 -0.540619
3.307434 -9.808584 -0.542483
3.342863 -9.804952 -0.542899
3.379172 -9.803707 -0.543454
3.407839 -9.780315 -0.542788
3.451653 -9.800186 -0.544530
3.488449 -9.799673 -0.545148
3.527095 -9.804070 -0.546047
3.560200 -9.792887 -0.546086
3.596724 -9.790997 -0.546650
3.635797 -9.795762 -0.547594
3.671369 -9.790851 -0.548004
3.712277 -9.799872 -0.549203
3.743392 -9.782873 -0.548951
3.788914 -9.803238 -0.550803
3.821263 -9.789202 -0.550731
3.857366 -9.784713 -0.551203
3.896451 -9.787552 -0.552096
3.933230 -9.784347 -0.552656
3.971748 -9.785233 -0.553455
4.012121 -9.790378 -0.554504
4.055347 -9.802064 -0.555933
4.088243 -9.788543 -0.555940
4.128753 -9.793077 -0.556981
4.168653 -9.795835 -0.557929
4.200394 -9.779293 -0.557786
4.242577 -9.786880 -0.559027
4.283952 -9.792226 -0.560150
4.321201 -9.787868 -0.560726
4.362229 -9.791811 -0.561787
4.406588 -9.802830 -0.563263
4.438678 -9.786344 -0.563168
4.478052 -9.785801 -0.563998
4.525263 -9.801979 -0.565801
4.565833 -9.803351 -0.566761
4.601415 -9.793818 -0.567099
4.641610 -9.793917 -0.568002
4.676195 -9.782009 -0.568218
4.725948 -9.801496 -0.570267
4.763797 -9.795905 -0.570868
4.802294 -9.791459 -0.571544
4.841355 -9.787956 -0.572284
4.885997 -9.795430 -0.573675
4.923517 -9.788347 -0.574224
4.961043 -9.781120 -0.574772
5.001814 -9.780085 -0.575694
5.047937 -9.789167 -0.577221
5.089457 -9.788973 -0.578213
5.130098 -9.786828 -0.579099
5.176139 -9.794657 -0.580586
5.219934 -9.797866 -0.581810
5.268760 -9.810110 -0.583583
5.303374 -9.795625 -0.583776
5.349081 -9.801415 -0.585186
5.379568 -9.779161 -0.584931
5.432433 -9.797335 -0.587104
5.474464 -9.795551 -0.588094
5.512724 -9.786814 -0.588676
5.557344 -9.789127 -0.589933
5.606466 -9.798985 -0.591656
5.640801 -9.782755 -0.591815
5.691392 -9.794459 -0.593674
5.736132 -9.795700 -0.594912
5.769633 -9.777583 -0.594983
5.816520 -9.781957 -0.596432
5.871244 -9.799052 -0.598672
5.909651 -9.788563 -0.599238
5.957610 -9.793637 -0.600768
6.002250 -9.792920 -0.601955
6.036956 -9.775827 -0.602145
6.091473 -9.790527 -0.604305
6.134316 -9.786086 -0.605297
6.174787 -9.777646 -0.606052
6.229304 -9.791106 -0.608178
6.280580 -9.799003 -0.609973
6.312348 -9.776263 -0.609871
6.370063 -9.793437 -0.612272
6.418762 -9.796288 -0.613792
6.457747 -9.784071 -0.614380
6.508975 -9.790129 -0.616127
6.562465 -9.799164 -0.618077
6.596487 -9.778890 -0.618190
6.660685 -9.803003 -0.621122
6.693155 -9.780091 -0.621089
6.739361 -9.777111 -0.622331
6.800222 -9.794961 -0.624915
6.847418 -9.792691 -0.626231
6.897359 -9.794025 -0.627792
6.944953 -9.791704 -0.629132
6.991114 -9.787083 -0.630338
7.048948 -9.798420 -0.632587
7.089896 -9.785960 -0.633313
7.138436 -9.783748 -0.634715
7.189229 -9.784298 -0.636311
7.231732 -9.773299 -0.637169
7.296780 -9.792373 -0.640004
7.350598 -9.795876 -0.641840
7.392626 -9.783384 -0.642642
7.448719 -9.789207 -0.644662
7.502129 -9.791101 -0.646439
7.558720 -9.796748 -0.648482
7.606387 -9.790481 -0.649751
7.659276 -9.790624 -0.651461
7.709178 -9.786621 -0.652911
7.756716 -9.779338 -0.654157
7.815118 -9.785401 -0.656311
