# This PCD file was generated using the MATLAB® pcwrite function
# from Computer Vision Toolbox®.
# .PCD v.7 - Point Cloud Data file format
VERSION .7
FIELDS x y z
SIZE 4 4 4
TYPE F F F
COUNT 1 1 1
WIDTH 1670
HEIGHT 1
VIEWPOINT 0 0 0 1 0 0 0
POINTS 1670
DATA ascii
-3.233221 -9.805259 0.180216
-3.197455 -9.807231 0.180054
-3.160792 -9.806221 0.179840
-3.123473 -9.802885 0.179586
-3.086367 -9.799896 0.179340
-3.052263 -9.806238 0.179268
-3.018244 -9.812767 0.179201
-2.978074 -9.798965 0.178766
-2.946623 -9.813625 0.178852
-2.910516 -9.812704 0.178657
-2.869349 -9.794245 0.178144
-2.836985 -9.805504 0.178175
-2.799923 -9.800365 0.177910
-2.766280 -9.806973 0.177861
-2.731686 -9.810097 0.177750
-2.692142 -9.795053 0.177313
-2.658046 -9.799454 0.177231
-2.624993 -9.807628 0.177218
-2.588730 -9.803630 0.176988
-2.550546 -9.791909 0.176621
-2.522994 -9.821006 0.176992
-2.482582 -9.799923 0.176461
-2.448141 -9.801907 0.176348
-2.411980 -9.796724 0.176109
-2.377810 -9.799359 0.176012
-2.342483 -9.796996 0.175827
-2.306649 -9.792171 0.175601
-2.274473 -9.802732 0.175653
-2.237555 -9.792625 0.175336
-2.205962 -9.805641 0.175436
-2.173628 -9.815486 0.175480
-2.138953 -9.814675 0.175337
-2.103075 -9.807990 0.175090
-2.066729 -9.798631 0.174799
-2.034186 -9.807054 0.174826
-1.999437 -9.804717 0.174664
-1.963247 -9.794875 0.174370
-1.932314 -9.811141 0.174544
-1.897840 -9.809459 0.174400
-1.861288 -9.796544 0.174058
-1.827064 -9.795402 0.173928
-1.791664 -9.787551 0.173681
-1.760339 -9.801865 0.173829
-1.728513 -9.813658 0.173935
-1.693716 -9.808487 0.173741
-1.659664 -9.807279 0.173620
-1.626451 -9.810844 0.173586
-1.590558 -9.797827 0.173260
-1.558773 -9.809867 0.173380
-1.524729 -9.807673 0.173250
-1.490376 -9.803118 0.173080
-1.458942 -9.817766 0.173251
-1.423090 -9.802444 0.172896
-1.392318 -9.821987 0.173157
-1.355170 -9.796178 0.172621
-1.324146 -9.814216 0.172860
-1.289005 -9.801655 0.172561
-1.256500 -9.808778 0.172612
-1.222991 -9.808002 0.172525
-1.188818 -9.801479 0.172339
-1.156543 -9.810451 0.172428
-1.122957 -9.808269 0.172322
-1.086572 -9.780533 0.171770
-1.055423 -9.799437 0.172039
-1.023421 -9.811160 0.172183
-0.988546 -9.794973 0.171840
-0.955417 -9.795341 0.171789
-0.923392 -9.807219 0.171942
-0.888852 -9.792045 0.171623
-0.858053 -9.818285 0.172032
-0.823135 -9.797361 0.171616
-0.790694 -9.805177 0.171705
-0.757178 -9.799545 0.171561
-0.723879 -9.796084 0.171457
-0.691188 -9.800691 0.171496
-0.658331 -9.803048 0.171498
-0.624669 -9.792809 0.171281
-0.592073 -9.798835 0.171351
-0.559478 -9.805359 0.171431
-0.526065 -9.797241 0.171258
-0.493107 -9.796816 0.171220
-0.460512 -9.803834 0.171315
-0.427346 -9.798617 0.171198
-0.394009 -9.788013 0.170989
-0.361419 -9.795506 0.171097
-0.328382 -9.790913 0.170997
-0.295639 -9.794807 0.171047
-0.262592 -9.788107 0.170913
-0.230369 -9.814338 0.171357
-0.197252 -9.804627 0.171175
-0.164305 -9.800888 0.171099
-0.131401 -9.798157 0.171043
-0.098591 -9.802807 0.171117
-0.065701 -9.799682 0.171058
-0.032852 -9.802107 0.171097
0.000013 -9.794910 0.170971
0.032837 -9.789852 0.170883
0.065712 -9.797466 0.171019
0.098604 -9.801446 0.171093
0.131388 -9.795310 0.170993
0.164263 -9.796789 0.171027
0.197526 -9.816957 0.171390
0.229959 -9.795742 0.171032
0.263200 -9.809815 0.171292
0.295694 -9.795779 0.171064
0.328720 -9.800217 0.171159
0.361845 -9.806362 0.171287
0.394381 -9.796623 0.171139
0.427181 -9.794228 0.171121
0.460542 -9.803916 0.171316
0.492924 -9.792661 0.171148
0.525922 -9.794082 0.171202
0.559270 -9.801256 0.171360
0.592340 -9.802828 0.171421
0.624896 -9.795967 0.171337
0.658562 -9.806100 0.171551
0.690641 -9.792569 0.171354
0.722872 -9.782109 0.171213
0.756865 -9.795145 0.171484
0.790026 -9.796576 0.171555
0.822893 -9.794175 0.171560
0.857160 -9.807766 0.171847
0.890369 -9.808476 0.171911
0.923694 -9.810151 0.171994
0.956014 -9.801186 0.171892
0.987370 -9.783063 0.171631
1.020964 -9.787358 0.171766
1.055935 -9.803944 0.172118
1.088002 -9.793170 0.171992
1.121594 -9.796137 0.172109
1.154928 -9.796524 0.172183
1.187854 -9.793312 0.172196
1.222275 -9.802043 0.172420
1.254710 -9.794593 0.172362
1.287550 -9.790392 0.172363
1.320704 -9.788507 0.172407
1.353305 -9.782506 0.172380
1.387131 -9.785211 0.172509
1.420805 -9.786519 0.172615
1.454641 -9.788644 0.172737
1.487792 -9.785946 0.172777
1.521161 -9.784554 0.172841
1.557219 -9.799916 0.173204
1.591047 -9.800676 0.173311
1.623953 -9.795614 0.173317
1.659620 -9.806858 0.173613
1.691669 -9.796479 0.173529
1.724503 -9.790738 0.173528
1.758669 -9.792415 0.173662
1.791301 -9.785421 0.173643
1.828965 -9.805446 0.174106
1.860873 -9.794218 0.174017
1.896202 -9.800856 0.174247
1.930199 -9.800265 0.174350
1.963892 -9.797958 0.174425
1.999068 -9.802773 0.174629
2.030554 -9.789414 0.174512
2.065376 -9.792087 0.174682
2.098577 -9.786888 0.174714
2.133004 -9.787255 0.174847
2.170310 -9.800382 0.175210
2.201964 -9.787748 0.175116
2.240799 -9.806705 0.175588
2.272147 -9.792588 0.175471
2.308778 -9.801091 0.175761
2.346043 -9.811769 0.176092
2.381034 -9.812532 0.176248
2.410637 -9.791161 0.176009
2.443066 -9.781479 0.175981
2.481606 -9.795960 0.176390
2.518091 -9.801813 0.176647
2.550996 -9.793529 0.176650
2.587674 -9.799527 0.176914
2.622002 -9.796350 0.177015
2.654333 -9.785661 0.176981
2.691270 -9.791778 0.177254
2.729987 -9.803895 0.177638
2.762371 -9.793017 0.177608
2.793687 -9.778440 0.177512
2.836596 -9.804065 0.178149
2.871625 -9.801919 0.178284
2.904920 -9.793742 0.178312
2.935536 -9.776607 0.178178
2.978500 -9.800274 0.178790
3.013313 -9.796641 0.178907
3.048034 -9.792562 0.179018
3.084107 -9.792630 0.179208
3.119941 -9.791708 0.179381
3.159773 -9.802971 0.179780
3.194698 -9.798687 0.179897
3.232839 -9.804012 0.180193
3.268914 -9.802780 0.180371
3.303805 -9.797821 0.180482
3.341338 -9.800481 0.180737
3.373457 -9.787129 0.180698
3.414804 -9.800305 0.181152
3.448436 -9.791051 0.181193
3.486583 -9.794433 0.181471
3.528505 -9.807990 0.181941
3.561328 -9.795991 0.181939
3.598841 -9.796759 0.182176
3.635878 -9.795982 0.182387
3.669918 -9.786979 0.182448
3.711225 -9.797096 0.182867
3.750172 -9.800592 0.183166
3.787548 -9.799703 0.183386
3.823123 -9.793968 0.183517
3.859815 -9.790926 0.183702
3.898402 -9.792453 0.183975
3.939005 -9.798714 0.184339
3.974970 -9.793173 0.184485
4.008417 -9.781338 0.184514
4.052530 -9.795255 0.185032
4.093778 -9.801794 0.185413
4.128534 -9.792558 0.185500
4.166130 -9.789907 0.185713
4.212390 -9.807222 0.186308
4.241698 -9.784853 0.186152
4.286922 -9.799012 0.186694
4.326959 -9.800909 0.187006
4.364769 -9.797512 0.187219
4.395594 -9.778373 0.187134
4.441791 -9.793206 0.187702
4.477105 -9.783731 0.187807
4.525808 -9.803160 0.188470
4.564047 -9.799518 0.188693
4.598966 -9.788606 0.188779
4.644771 -9.800586 0.189309
4.682916 -9.796068 0.189524
4.714940 -9.778665 0.189492
4.757007 -9.781940 0.189864
4.802878 -9.792649 0.190383
4.840666 -9.786563 0.190579
4.886292 -9.796021 0.191081
4.927632 -9.796529 0.191412
4.959559 -9.778194 0.191378
5.014950 -9.805769 0.192246
5.049188 -9.791593 0.192298
5.089997 -9.790012 0.192601
5.136193 -9.798455 0.193105
5.175840 -9.794092 0.193360
5.216276 -9.790999 0.193643
5.257995 -9.790066 0.193972
5.306270 -9.800975 0.194540
5.336252 -9.777907 0.194436
5.386994 -9.792663 0.195088
5.427553 -9.788533 0.195367
5.475478 -9.797365 0.195908
5.514962 -9.790786 0.196145
5.566926 -9.806005 0.196823
5.606828 -9.799617 0.197071
5.638905 -9.779466 0.197045
5.687636 -9.787995 0.197600
5.737748 -9.798459 0.198199
5.774138 -9.785216 0.198321
5.821062 -9.789596 0.198804
5.860510 -9.781137 0.199030
5.911104 -9.790970 0.199633
5.954946 -9.789258 0.200004
6.001215 -9.791231 0.200454
6.042098 -9.784153 0.200723
6.082443 -9.776014 0.200973
6.129604 -9.778567 0.201447
6.178100 -9.782892 0.201962
6.226631 -9.786903 0.202474
6.275352 -9.790845 0.202990
6.319160 -9.786812 0.203344
6.368109 -9.790433 0.203862
6.415216 -9.790876 0.204318
6.457389 -9.783528 0.204615
6.504998 -9.784147 0.205083
6.560310 -9.795946 0.205791
6.603281 -9.788963 0.206108
6.653100 -9.791841 0.206637
6.704206 -9.796238 0.207203
6.747931 -9.789544 0.207539
6.797925 -9.791654 0.208065
6.842682 -9.785917 0.208430
6.890629 -9.784469 0.208890
6.943403 -9.789519 0.209494
6.990750 -9.786572 0.209931
7.038136 -9.783391 0.210368
7.093958 -9.791568 0.211054
7.143790 -9.791086 0.211558
7.197183 -9.795122 0.212166
7.246225 -9.792887 0.212643
7.298409 -9.794559 0.213209
7.335976 -9.776387 0.213348
7.397192 -9.789426 0.214172
7.447630 -9.787776 0.214681
7.507521 -9.798140 0.215459
7.551462 -9.787341 0.215778
7.602923 -9.786022 0.216309
7.657500 -9.788354 0.216927
7.697590 -9.771910 0.217133
7.768927 -9.794732 0.218218
7.825096 -9.797894 0.218872
7.866621 -9.782447 0.219115
7.933753 -9.798472 0.220068
7.973772 -9.780663 0.220267
8.030872 -9.783541 0.220937
8.088405 -9.786536 0.221616
8.139124 -9.780936 0.222106
8.191248 -9.776718 0.222633
8.253292 -9.783947 0.223426
8.317594 -9.793361 0.224277
8.368360 -9.786442 0.224760
8.422175 -9.782782 0.225323
8.481633 -9.785298 0.226034
8.544000 -9.790731 0.226820
8.599141 -9.787484 0.227412
8.657557 -9.787594 0.228088
8.703377 -9.773169 0.228430
8.775503 -9.787887 0.229461
8.837411 -9.790692 0.230220
8.894208 -9.787440 0.230843
8.959133 -9.792717 0.231675
9.006761 -9.778740 0.232057
9.075837 -9.787680 0.232990
9.125342 -9.775126 0.233418
9.194314 -9.783046 0.234342
9.260570 -9.787578 0.235193
9.315778 -9.780036 0.235761
9.377018 -9.778470 0.236480
9.445398 -9.783900 0.237376
9.510849 -9.785822 0.238195
9.568423 -9.779243 0.238814
9.633555 -9.779998 0.239620
9.702976 -9.784636 0.240529
9.762815 -9.779181 0.241199
9.827765 -9.778450 0.241992
9.892688 -9.777261 0.242782
9.972453 -9.790218 0.243933
10.033159 -9.783971 0.244614
10.103249 -9.786448 0.245521
10.166526 -9.781885 0.246261
10.228228 -9.775424 0.246960
10.305198 -9.783086 0.248025
10.383968 -9.791883 0.249129
10.449337 -9.787544 0.249909
10.507973 -9.776532 0.250526
10.584428 -9.781665 0.251565
10.656381 -9.782121 0.252494
10.737736 -9.790667 0.253643
10.802364 -9.783467 0.254393
10.880055 -9.787630 0.255449
10.953992 -9.787894 0.256413
11.016306 -9.777347 0.257102
11.092736 -9.778890 0.258120
11.168278 -9.779135 0.259113
11.242351 -9.777595 0.260069
11.320716 -9.779277 0.261122
11.393521 -9.775656 0.262044
11.468072 -9.773055 0.263004
11.546842 -9.773542 0.264057
11.630490 -9.777601 0.265219
11.705471 -9.773841 0.266180
11.797872 -9.784046 0.267534
11.865342 -9.773044 0.268319
11.950933 -9.776474 0.269512
12.029646 -9.773725 0.270546
12.113195 -9.774365 0.271687
12.207145 -9.782780 0.273057
12.287086 -9.779371 0.274110
12.381145 -9.786606 0.275475
12.454314 -9.776774 0.276372
12.545368 -9.780448 0.277663
12.643024 -9.788605 0.279097
12.707019 -9.770185 0.279785
12.799914 -9.773499 0.281107
12.895775 -9.778423 0.282491
12.992203 -9.783109 0.283883
13.073250 -9.775624 0.284936
13.168220 -9.777973 0.286290
13.246243 -9.767181 0.287272
13.347396 -9.772854 0.288754
13.449108 -9.778230 0.290243
13.529294 -9.767358 0.291265
13.637278 -9.775929 0.292883
13.741508 -9.781065 0.294416
13.825067 -9.770870 0.295502
13.936147 -9.779477 0.297174
14.025682 -9.772289 0.298383
14.120944 -9.768497 0.299711
14.235309 -9.777205 0.301441
14.349909 -9.785270 0.303171
14.438609 -9.774996 0.304351
14.553077 -9.781494 0.306071
14.645334 -9.772377 0.307320
14.760826 -9.778075 0.309054
14.863570 -9.774591 0.310517
14.983751 -9.781819 0.312341
15.081429 -9.773628 0.313693
15.188184 -9.770658 0.315230
15.313196 -9.778645 0.317142
15.429985 -9.780549 0.318880
15.538630 -9.776540 0.320446
15.662931 -9.781597 0.322331
15.711335 -9.738756 0.322654
15.708849 -9.664461 0.321935
15.703737 -9.588884 0.321170
15.720413 -9.526855 0.320856
15.718319 -9.453676 0.320164
15.700703 -9.371541 0.319164
15.720846 -9.312220 0.318937
15.709869 -9.234704 0.318084
15.712955 -9.165771 0.317523
15.705095 -9.090750 0.316746
15.713801 -9.025587 0.316310
15.710601 -8.953831 0.315639
15.718965 -8.888908 0.315207
15.713823 -8.816599 0.314509
15.714154 -8.747643 0.313927
15.702682 -8.672421 0.313115
15.710557 -8.608155 0.312695
15.724359 -8.547295 0.312397
15.708461 -8.470548 0.311515
15.721848 -8.409849 0.311220
15.710883 -8.336357 0.310448
15.718611 -8.273037 0.310051
15.719376 -8.206254 0.309521
15.709307 -8.134089 0.308784
15.708989 -8.067250 0.308245
15.712523 -8.002605 0.307786
15.701918 -7.931014 0.307056
15.723071 -7.875644 0.306951
15.714311 -7.805460 0.306267
15.707432 -7.736495 0.305626
15.705751 -7.670341 0.305091
15.698775 -7.601852 0.304459
15.718841 -7.546613 0.304356
15.707099 -7.476278 0.303641
15.716437 -7.416193 0.303339
15.707278 -7.347583 0.302685
15.711168 -7.285299 0.302288
15.710585 -7.221127 0.301809
15.702435 -7.153709 0.301190
15.718782 -7.097613 0.301046
15.716749 -7.033351 0.300553
15.710577 -6.967460 0.299987
15.716880 -6.907289 0.299663
15.723357 -6.847328 0.299347
15.709521 -6.778734 0.298650
15.706596 -6.715095 0.298164
15.715190 -6.656537 0.297902
15.713824 -6.593908 0.297456
15.695352 -6.524353 0.296690
15.720946 -6.473261 0.296762
15.715369 -6.409425 0.296249
15.711626 -6.346541 0.295776
15.695432 -6.278872 0.295073
15.701625 -6.220361 0.294796
15.693873 -6.156494 0.294261
15.713366 -6.103429 0.294241
15.701542 -6.038328 0.293639
15.707073 -5.980082 0.293366
15.708117 -5.920255 0.293013
15.708844 -5.860454 0.292658
15.693144 -5.794732 0.292002
15.720469 -5.745002 0.292151
15.719576 -5.685004 0.291778
15.704185 -5.619970 0.291141
15.716073 -5.564854 0.291014
15.717870 -5.506254 0.290704
15.707871 -5.443692 0.290180
15.713267 -5.386619 0.289944
15.701616 -5.323861 0.289398
15.706059 -5.266720 0.289153
15.709245 -5.209261 0.288888
15.711048 -5.151455 0.288602
15.712877 -5.093772 0.288321
15.705898 -5.033380 0.287881
15.704761 -4.975014 0.287553
15.706901 -4.917806 0.287289
15.694246 -4.856126 0.286758
15.701145 -4.800637 0.286588
15.701201 -4.743149 0.286297
15.724656 -4.692759 0.286436
15.698909 -4.627809 0.285683
15.696504 -4.569955 0.285359
15.723135 -4.520579 0.285566
15.701504 -4.457418 0.284900
15.717782 -4.405148 0.284926
15.707502 -4.345519 0.284474
15.717191 -4.291521 0.284387
15.716747 -4.234828 0.284121
15.695868 -4.172807 0.283489
15.705671 -4.119082 0.283415
15.727311 -4.068449 0.283557
15.710007 -4.007824 0.283002
15.716108 -3.953306 0.282871
15.711498 -3.896182 0.282551
15.710172 -3.839987 0.282294
15.706964 -3.783439 0.282007
15.712769 -3.729144 0.281885
15.697396 -3.669944 0.281387
15.703302 -3.615840 0.281274
15.700233 -3.559745 0.281004
15.700668 -3.504538 0.280800
15.708873 -3.451117 0.280738
15.705207 -3.395154 0.280468
15.702156 -3.339428 0.280212
15.697883 -3.283545 0.279937
15.698139 -3.228701 0.279747
15.706264 -3.175522 0.279701
15.708923 -3.121274 0.279560
15.701335 -3.065081 0.279241
15.704573 -3.011087 0.279117
15.708760 -2.957320 0.279014
15.698064 -2.900843 0.278649
15.703051 -2.847350 0.278567
15.714506 -2.795040 0.278602
15.707586 -2.739511 0.278315
15.708752 -2.685475 0.278175
15.689757 -2.628116 0.277681
15.701605 -2.576010 0.277736
15.699583 -2.521652 0.277549
15.693569 -2.466740 0.277295
15.688993 -2.412148 0.277070
15.686058 -2.357888 0.276877
15.712864 -2.308071 0.277212
15.708574 -2.253663 0.277001
15.702580 -2.199098 0.276764
15.712423 -2.146787 0.276809
15.689944 -2.090152 0.276288
15.711165 -2.039392 0.276540
15.692335 -1.983470 0.276090
15.700116 -1.930996 0.276111
15.712854 -1.879105 0.276223
15.690197 -1.823058 0.275716
15.709635 -1.771954 0.275951
15.702682 -1.717872 0.275726
15.693191 -1.663607 0.275460
15.695765 -1.610682 0.275409
15.698483 -1.557791 0.275363
15.686033 -1.503462 0.275055
15.695060 -1.451238 0.275127
15.708488 -1.399378 0.275278
15.706554 -1.346142 0.275164
15.721946 -1.294377 0.275356
15.696597 -1.239320 0.274837
15.702406 -1.186816 0.274868
15.707423 -1.134244 0.274888
15.692606 -1.080298 0.274563
15.705035 -1.028260 0.274719
15.690598 -0.974493 0.274408
15.684251 -0.921320 0.274241
15.696973 -0.869267 0.274411
15.683183 -0.815769 0.274121
15.706978 -0.764210 0.274490
15.705922 -0.711384 0.274429
15.703808 -0.658536 0.274351
15.698937 -0.605610 0.274229
15.698052 -0.552872 0.274180
15.710689 -0.500583 0.274370
15.709157 -0.447816 0.274315
15.691791 -0.394671 0.273987
15.701154 -0.342234 0.274129
15.706943 -0.289677 0.274212
15.702074 -0.236926 0.274112
15.695103 -0.184188 0.273977
15.702230 -0.131620 0.274093
7.469941 -0.037568 0.130390
7.475895 -0.012533 0.130492
7.493260 0.012562 0.130795
7.509019 0.037765 0.131072
7.521914 0.063050 0.131300
7.526137 0.088322 0.131378
7.529304 0.113608 0.131439
7.554070 0.139317 0.131879
7.565896 0.164912 0.132094
7.573012 0.190472 0.132229
7.584816 0.216218 0.132447
15.703496 0.500353 0.274244
15.697122 0.552839 0.274164
15.701849 0.605723 0.274280
15.699322 0.658348 0.274273
15.701904 0.711202 0.274358
15.703864 0.764059 0.274436
15.706347 0.816974 0.274526
15.705484 0.869738 0.274560
15.694757 0.921937 0.274425
15.697309 0.974910 0.274525
15.694227 1.027552 0.274530
15.708411 1.081386 0.274840
15.706467 1.134175 0.274871
15.693410 1.186137 0.274710
15.702393 1.239777 0.274939
15.708228 1.293247 0.275115
15.710749 1.346502 0.275237
15.711519 1.399648 0.275331
15.699638 1.451662 0.275207
15.706595 1.505433 0.275416
15.688588 1.556809 0.275190
15.703669 1.611493 0.275548
15.692543 1.663538 0.275449
15.696371 1.717182 0.275615
15.705843 1.771527 0.275885
15.689760 1.823007 0.275708
15.698482 1.877386 0.275970
15.690735 1.929842 0.275946
15.691742 1.983395 0.276079
15.697542 2.037623 0.276300
15.702762 2.091860 0.276514
15.700940 2.145218 0.276607
15.709094 2.200010 0.276879
15.698490 2.252217 0.276823
15.709578 2.307589 0.277154
15.689862 2.358460 0.276944
15.690438 2.412369 0.277095
15.687253 2.465748 0.277184
15.691946 2.520426 0.277414
15.708041 2.577065 0.277850
15.686865 2.627632 0.277630
15.688899 2.682081 0.277823
15.706244 2.739277 0.278291
15.700667 2.792579 0.278357
15.687344 2.844502 0.278288
15.698896 2.900996 0.278664
15.688547 2.953515 0.278655
15.695142 3.009279 0.278949
15.701560 3.065125 0.279245
15.687419 3.117002 0.279177
15.693855 3.173013 0.279480
15.693692 3.227787 0.279668
15.691730 3.282258 0.279828
15.678473 3.334391 0.279789
15.696609 3.393296 0.280314
15.694879 3.448043 0.280488
15.699929 3.504373 0.280787
15.701533 3.560040 0.281027
15.693373 3.613554 0.281096
15.677793 3.665361 0.281036
15.695692 3.725091 0.281579
15.689460 3.779223 0.281693
15.684345 3.833674 0.281830
15.701497 3.893702 0.282372
15.703890 3.950232 0.282651
15.687092 4.001978 0.282589
15.691286 4.059130 0.282908
15.702763 4.118320 0.283362
15.697548 4.173253 0.283519
15.690495 4.227754 0.283646
15.700196 4.286881 0.284080
15.700653 4.343624 0.284350
15.701390 4.400554 0.284629
15.708378 4.459370 0.285025
15.695378 4.512599 0.285062
15.683599 4.566198 0.285124
15.705497 4.629751 0.285803
15.683665 4.680526 0.285690
15.685632 4.738445 0.286013
15.699710 4.800199 0.286562
15.697517 4.857139 0.286818
15.703206 4.916649 0.287221
15.685204 4.968819 0.287195
15.694671 5.029782 0.287675
15.700011 5.089602 0.288085
15.698142 5.147223 0.288365
15.681257 5.199980 0.288374
15.693779 5.262602 0.288927
15.695682 5.321848 0.289289
15.682200 5.375969 0.289371
15.687871 5.436760 0.289810
15.689324 5.496254 0.290176
15.695671 5.557630 0.290636
15.689128 5.614582 0.290862
15.683455 5.671941 0.291108
15.686750 5.732679 0.291524
15.681423 5.790404 0.291784
15.680750 5.849973 0.292135
15.687165 5.912358 0.292622
15.682229 5.970623 0.292902
15.681465 6.030607 0.293264
15.678355 6.089830 0.293586
15.703527 6.160282 0.294442
15.695155 6.217798 0.294674
15.706582 6.283333 0.295283
15.693946 6.339400 0.295443
15.692650 6.400159 0.295821
15.681308 6.456940 0.296014
15.676653 6.516580 0.296337
15.692144 6.584810 0.297045
15.690703 6.646165 0.297438
15.679955 6.703705 0.297659
15.682162 6.766928 0.298130
15.686226 6.831158 0.298641
15.683137 6.892459 0.299020
15.686753 6.956894 0.299532
15.691041 7.021846 0.300062
15.698289 7.088359 0.300653
15.699016 7.152152 0.301125
15.687580 7.210553 0.301367
15.690630 7.275775 0.301893
15.678591 7.334164 0.302133
15.697969 7.407479 0.302983
15.684243 7.465399 0.303199
15.684074 7.529922 0.303683
15.681401 7.593439 0.304122
15.682341 7.658908 0.304637
15.681214 7.723582 0.305116
15.676161 7.786511 0.305524
15.697403 7.862787 0.306450
15.689053 7.924516 0.306804
15.685583 7.988884 0.307258
15.699541 8.062399 0.308059
15.680773 8.119315 0.308224
15.682919 8.187222 0.308804
15.685010 8.255353 0.309388
15.691903 8.326285 0.310073
15.695316 8.395658 0.310695
15.699843 8.465901 0.311345
15.676894 8.521494 0.311454
15.686423 8.594933 0.312214
15.681339 8.660634 0.312689
15.674744 8.725703 0.313139
15.673664 8.794067 0.313705
15.696622 8.876274 0.314759
15.691861 8.943151 0.315263
15.682238 9.007458 0.315674
15.684367 9.078752 0.316328
15.674573 9.143381 0.316747
15.689179 9.222542 0.317665
15.682836 9.289703 0.318166
15.680564 9.359521 0.318754
15.692917 9.438398 0.319647
15.673908 9.498672 0.319907
15.681306 9.575188 0.320711
15.686605 9.650776 0.321479
15.680930 9.719910 0.322029
15.686530 9.796334 0.322817
15.672455 9.860739 0.323206
15.677598 9.937502 0.323997
15.681332 10.013727 0.324766
15.586420 10.026846 0.323495
15.471085 10.026147 0.321797
15.361197 10.028227 0.320209
15.242984 10.024102 0.318444
15.124303 10.018854 0.316664
15.033575 10.031438 0.315467
14.912953 10.023376 0.313640
14.808386 10.025336 0.312146
14.699190 10.023446 0.310550
14.596014 10.024948 0.309079
14.480749 10.017401 0.307348
14.390147 10.026227 0.306136
14.280663 10.021235 0.304520
14.174386 10.017752 0.302969
14.099676 10.036006 0.302089
13.971232 10.015326 0.300055
13.886526 10.025258 0.298956
13.789909 10.026011 0.297598
13.687688 10.022013 0.296116
13.589845 10.020536 0.294724
13.493379 10.019419 0.293359
13.401854 10.021340 0.292098
13.331302 10.038449 0.291292
13.219344 10.023774 0.289579
13.131580 10.026746 0.288391
13.032704 10.020598 0.286956
12.946281 10.023396 0.285791
12.848907 10.017089 0.284381
12.768281 10.023242 0.283339
12.691156 10.031652 0.282372
12.591283 10.021484 0.280896
12.506752 10.022884 0.279759
12.427797 10.028224 0.278743
12.331226 10.018749 0.277329
12.251718 10.022531 0.276295
12.174439 10.027636 0.275309
12.083842 10.021204 0.274018
12.001439 10.020968 0.272910
11.911679 10.013993 0.271631
11.835547 10.017910 0.270659
11.751893 10.014927 0.269513
11.682327 10.023451 0.268686
11.603433 10.023499 0.267643
11.512630 10.012659 0.266322
11.438347 10.015612 0.265379
11.365479 10.019327 0.264466
11.289303 10.019641 0.263474
11.218690 10.024414 0.262609
11.138158 10.019817 0.261508
11.066617 10.022795 0.260616
10.994264 10.024569 0.259702
10.918706 10.022924 0.258710
10.840076 10.017923 0.257641
10.766372 10.016944 0.256686
10.690864 10.013775 0.255685
10.630291 10.024160 0.255039
10.542056 10.007944 0.253726
10.479066 10.015158 0.253016
10.415167 10.021120 0.252283
10.338092 10.013927 0.251228
10.268116 10.013092 0.250342
10.194631 10.008336 0.249367
10.129046 10.010862 0.248583
10.072232 10.021690 0.248012
10.002393 10.019161 0.247118
9.934692 10.018303 0.246274
9.869075 10.019097 0.245478
9.793187 10.008960 0.244424
9.733520 10.014931 0.243772
9.664289 10.010636 0.242877
9.599197 10.010160 0.242083
9.548311 10.024158 0.241646
9.478172 10.017563 0.240720
9.409300 10.011797 0.239822
9.362219 10.028870 0.239477
9.286138 10.014474 0.238389
9.227067 10.017929 0.237733
9.173561 10.027097 0.237220
9.094182 10.007498 0.236033
9.041674 10.016990 0.235541
8.980073 10.016058 0.234810
8.922461 10.019181 0.234180
8.863464 10.020378 0.233512
8.793189 10.008348 0.232544
8.731486 10.005577 0.231798
8.678329 10.012227 0.231276
8.624703 10.018028 0.230741
8.561257 10.012028 0.229940
8.506160 10.015384 0.229361
8.453457 10.021235 0.228845
8.398355 10.023913 0.228262
8.331035 10.011559 0.227343
8.273546 10.010548 0.226689
8.223261 10.017917 0.226230
8.158551 10.007315 0.225372
8.107564 10.013137 0.224889
8.053442 10.014766 0.224318
7.995012 10.010650 0.223624
7.946346 10.018415 0.223201
7.891725 10.018360 0.222609
7.827623 10.005816 0.221746
7.783725 10.018740 0.221453
7.724497 10.011609 0.220722
7.674211 10.015688 0.220243
7.620631 10.015135 0.219668
7.567158 10.014359 0.219093
7.511141 10.009824 0.218442
7.458368 10.009225 0.217882
7.401913 10.003289 0.217211
7.356313 10.011693 0.216857
7.313673 10.023923 0.216589
7.266520 10.029750 0.216188
7.201302 10.010201 0.215245
7.146580 10.004724 0.214610
7.106077 10.018874 0.214402
7.055098 10.018009 0.213876
7.005491 10.018756 0.213389
6.946565 10.005753 0.212615
6.905206 10.017710 0.212376
6.848552 10.007158 0.211664
6.802236 10.011334 0.211269
6.756033 10.015408 0.210876
6.698480 10.002262 0.210125
6.651381 10.004322 0.209698
6.607769 10.011368 0.209381
6.561353 10.013910 0.208972
6.509519 10.007838 0.208389
6.462894 10.009421 0.207970
6.422930 10.021098 0.207764
6.369950 10.012170 0.207135
6.321330 10.009695 0.206644
6.273060 10.007423 0.206162
6.232359 10.016968 0.205927
6.192016 10.026919 0.205703
6.136802 10.012446 0.204983
6.090099 10.011434 0.204543
6.044492 10.011909 0.204138
5.999746 10.013520 0.203759
5.955021 10.014883 0.203379
5.901265 10.000654 0.202688
5.866831 10.018897 0.202657
5.815313 10.007719 0.202036
5.775467 10.016304 0.201817
5.737093 10.027294 0.201650
5.692364 10.026960 0.201258
5.640897 10.014360 0.200624
5.589581 10.001531 0.199991
5.554016 10.016608 0.199919
5.501637 10.001063 0.199239
5.462291 10.008857 0.199029
5.412775 9.997695 0.198445
5.380977 10.019050 0.198509
5.331085 10.006496 0.197905
5.287994 10.006317 0.197550
5.248723 10.013132 0.197336
5.205227 10.011643 0.196962
5.162945 10.012197 0.196631
5.116910 10.005132 0.196154
5.077307 10.010345 0.195921
5.038823 10.017584 0.195731
4.992629 10.009205 0.195240
4.944916 9.997329 0.194683
4.906686 10.004304 0.194498
4.868065 10.010313 0.194296
4.827030 10.011137 0.193997
4.787672 10.015204 0.193764
4.739803 10.001105 0.193182
4.701433 10.006701 0.192985
4.656896 9.998874 0.192532
4.623374 10.014494 0.192533
4.577230 10.002534 0.192007
4.533460 9.995317 0.191575
4.503067 10.017458 0.191709
4.458165 10.007156 0.191225
4.417672 10.006381 0.190926
4.380850 10.013713 0.190785
4.337868 10.006700 0.190373
4.293950 9.997107 0.189915
4.256429 10.002099 0.189738
4.215876 9.999725 0.189424
4.182460 10.014128 0.189430
4.142179 10.011943 0.189125
4.097926 9.999758 0.188634
4.063716 10.011816 0.188604
4.027112 10.017889 0.188462
3.983216 10.005498 0.187977
3.948259 10.015277 0.187911
3.907727 10.010703 0.187578
3.872643 10.019872 0.187506
3.834277 10.020389 0.187274
3.788952 10.002284 0.186697
3.753071 10.008734 0.186581
3.716160 10.012280 0.186414
3.675989 10.006770 0.186081
3.640839 10.014698 0.186001
3.601948 10.012134 0.185728
3.560401 10.001801 0.185313
3.524585 10.007258 0.185195
3.485134 10.002149 0.184883
3.451304 10.012980 0.184868
3.409299 9.999815 0.184413
3.374541 10.007597 0.184347
3.337281 10.007797 0.184143
3.293012 9.986494 0.183547
3.263304 10.009115 0.183761
3.224041 10.002359 0.183437
3.186532 10.000700 0.183210
3.154301 10.015511 0.183286
3.115134 10.008138 0.182959
3.076762 10.002924 0.182674
3.041799 10.008549 0.182590
3.007731 10.017046 0.182560
2.964047 9.993084 0.181941
2.932595 10.010030 0.182069
2.890279 9.989605 0.181521
2.858402 10.004957 0.181624
2.821354 10.002119 0.181400
2.785566 10.003491 0.181255
2.752493 10.014528 0.181286
2.711671 9.997048 0.180804
2.677696 10.004432 0.180774
2.640013 9.997734 0.180492
2.608476 10.014202 0.180631
2.570767 10.006858 0.180342
2.533672 10.001490 0.180091
2.498955 10.005245 0.180007
2.463352 10.005270 0.179858
2.427843 10.005438 0.179713
2.389135 9.991991 0.179327
2.356592 10.004069 0.179401
2.321335 10.004579 0.179269
2.288661 10.016169 0.179339
2.252747 10.013478 0.179154
2.217696 10.014360 0.179036
2.180205 10.003835 0.178716
2.148050 10.017606 0.178832
2.110128 10.004260 0.178467
2.073228 9.995147 0.178179
2.040527 10.006074 0.178251
2.005119 10.003639 0.178087
1.971626 10.010604 0.178092
1.937012 10.011786 0.177997
1.900271 10.001581 0.177701
1.866593 10.007181 0.177688
1.830831 10.001368 0.177475
1.798036 10.011615 0.177549
1.760937 9.997591 0.177195
1.728363 10.008972 0.177293
1.694636 10.013772 0.177276
1.657997 10.000972 0.176950
1.626119 10.016712 0.177131
1.590357 10.008463 0.176890
1.555208 10.003551 0.176710
1.520780 10.002928 0.176608
1.486759 10.004775 0.176551
1.453009 10.008343 0.176527
1.419596 10.014225 0.176546
1.384465 10.007742 0.176349
1.351069 10.013561 0.176371
1.315373 10.001952 0.176088
1.280604 9.996734 0.175919
1.247961 10.008031 0.176043
1.213371 10.003688 0.175895
1.178688 9.998063 0.175725
1.145753 10.007143 0.175816
1.112070 10.009811 0.175797
1.079301 10.020895 0.175927
1.044721 10.015099 0.175762
1.009377 10.001110 0.175457
0.975068 9.996533 0.175318
0.941825 10.002709 0.175370
0.907927 10.001895 0.175301
0.873751 9.997601 0.175174
0.839537 9.992268 0.175030
0.806398 9.999596 0.175110
0.772455 9.996917 0.175017
0.739950 10.013214 0.175258
0.705343 10.001025 0.175002
0.671684 10.001489 0.174970
0.637592 9.994985 0.174817
0.604530 10.004568 0.174949
0.570773 10.002849 0.174884
0.537168 10.003513 0.174863
0.503544 10.003649 0.174835
0.469469 9.993967 0.174637
0.435600 9.987252 0.174494
0.402523 9.998868 0.174672
0.369081 10.002461 0.174712
0.335697 10.008233 0.174792
0.302072 10.007081 0.174754
0.268358 10.002049 0.174649
0.234897 10.006097 0.174705
0.201316 10.005280 0.174678
0.167859 10.011301 0.174772
0.134165 10.002325 0.174607
0.100584 9.998264 0.174529
0.067087 10.002465 0.174597
0.033557 10.004684 0.174633
0.000013 10.007431 0.174680
-0.033511 9.998687 0.174528
-0.067065 10.003164 0.174610
-0.100587 10.001180 0.174580
-0.134074 9.997511 0.174523
-0.167620 9.998620 0.174551
-0.201127 9.997238 0.174537
-0.234523 9.991299 0.174447
-0.268498 10.008266 0.174758
-0.301731 9.996667 0.174572
-0.335732 10.010063 0.174824
-0.369010 10.001255 0.174691
-0.402389 9.996187 0.174625
-0.436208 10.001810 0.174748
-0.469305 9.991037 0.174586
-0.502649 9.986393 0.174534
-0.536866 9.998382 0.174774
-0.570826 10.004243 0.174908
-0.604768 10.008947 0.175025
-0.637391 9.992260 0.174770
-0.671260 9.995574 0.174866
-0.704797 9.993659 0.174873
-0.739200 10.003428 0.175086
-0.772657 9.999875 0.175068
-0.805850 9.993125 0.174997
-0.839658 9.994033 0.175061
-0.873330 9.993086 0.175095
-0.907880 10.001666 0.175297
-0.940911 9.993282 0.175205
-0.975183 9.997989 0.175343
-1.009089 9.998528 0.175411
-1.042510 9.994160 0.175395
-1.077124 10.000924 0.175576
-1.111221 10.002405 0.175666
-1.144879 9.999745 0.175686
-1.177529 9.988461 0.175556
-1.213688 10.006527 0.175944
-1.247059 10.001021 0.175920
-1.280482 9.995986 0.175906
-1.314418 9.994897 0.175963
-1.349766 10.004104 0.176204
-1.383261 9.999240 0.176199
-1.416393 9.991822 0.176151
-1.448900 9.980226 0.176031
-1.485949 9.999511 0.176458
-1.520954 10.004251 0.176631
-1.552008 9.983142 0.176349
-1.587755 9.992258 0.176603
-1.621089 9.985899 0.176586
-1.658735 10.005587 0.177032
-1.692513 10.001391 0.177057
-1.727427 10.003711 0.177199
-1.761289 9.999745 0.177233
-1.796985 10.005916 0.177448
-1.829509 9.994293 0.177350
-1.863470 9.990582 0.177394
-1.900248 10.001607 0.177701
-1.932670 9.989489 0.177600
-1.966631 9.985385 0.177644
-2.003600 9.996200 0.177954
-2.036752 9.987702 0.177924
-2.072514 9.991839 0.178120
-2.108667 9.997462 0.178346
-2.144367 10.000562 0.178528
-2.180969 10.007466 0.178781
-2.215409 10.004158 0.178853
-2.247819 9.991699 0.178764
-2.283819 9.995099 0.178961
-2.318998 9.994626 0.179091
-2.353648 9.991691 0.179179
-2.389385 9.993156 0.179348
-2.422094 9.981862 0.179290
-2.458778 9.986805 0.179526
-2.497635 10.000072 0.179914
-2.535528 10.008927 0.180225
-2.564260 9.981638 0.179887
-2.603090 9.993630 0.180260
-2.638055 9.990426 0.180360
-2.672503 9.985136 0.180426
-2.710251 9.991917 0.180711
-2.746813 9.993966 0.180914
-2.782118 9.991210 0.181032
-2.821263 10.001899 0.181396
-2.856598 9.998741 0.181511
-2.891908 9.995337 0.181625
-2.927239 9.991846 0.181738
-2.964986 9.996346 0.182000
-2.998351 9.985905 0.181992
-3.040232 10.003491 0.182497
-3.070006 9.981053 0.182275
-3.114629 10.006609 0.182931
-3.142967 9.979613 0.182629
-3.182927 9.989477 0.183004
-3.219533 9.988463 0.183182
-3.258602 9.994782 0.183497
-3.294239 9.990305 0.183617
-3.333648 9.996992 0.183944
-3.369766 9.993526 0.184087
-3.404794 9.986691 0.184171
-3.442090 9.986333 0.184376
-3.482757 9.995412 0.184758
-3.519891 9.994016 0.184949
-3.558084 9.995377 0.185194
-3.593064 9.987524 0.185271
-3.635585 10.000327 0.185733
-3.672757 9.998055 0.185919
-3.709515 9.994459 0.186082
-3.748394 9.996341 0.186350
-3.786757 9.996570 0.186590
-3.827618 10.003065 0.186950
-3.863810 9.997097 0.187079
-3.898824 9.987975 0.187152
-3.934618 9.980751 0.187263
-3.976529 9.988780 0.187663
-4.022998 10.007732 0.188271
-4.056731 9.994682 0.188281
-4.099991 10.004874 0.188730
-4.134581 9.993653 0.188779
-4.174071 9.994116 0.189051
-4.216070 10.000259 0.189434
-4.251242 9.989984 0.189508
-4.288397 9.984252 0.189671
-4.329803 9.988167 0.190020
-4.375782 10.002203 0.190565
-4.410361 9.989893 0.190611
-4.447594 9.983499 0.190773
-4.493299 9.995799 0.191295
-4.533989 9.996555 0.191599
-4.567832 9.982064 0.191614
-4.608607 9.982578 0.191919
-4.654033 9.992797 0.192414
-4.694151 9.991271 0.192687
-4.738022 9.997417 0.193111
-4.777098 9.993153 0.193337
-4.807564 9.970835 0.193216
-4.865127 10.004339 0.194180
-4.898417 9.987510 0.194171
-4.944031 9.995606 0.194650
-4.976901 9.977739 0.194625
-5.026840 9.993828 0.195267
-5.072427 10.000789 0.195734
-5.109361 9.990437 0.195866
-5.157681 10.002051 0.196431
-5.193749 9.989632 0.196528
-5.239869 9.996306 0.197004
-5.282444 9.995880 0.197344
-5.328756 10.002191 0.197820
-5.365086 9.989527 0.197924
-5.411385 9.995191 0.198395
-5.450704 9.987687 0.198607
-5.493017 9.985456 0.198928
-5.544087 9.998764 0.199562
-5.581888 9.987828 0.199717
-5.627923 9.991389 0.200164
-5.675959 9.998125 0.200679
-5.713346 9.985851 0.200816
-5.756873 9.984118 0.201168
-5.814852 10.006986 0.202021
-5.849063 9.988615 0.202045
-5.888898 9.979756 0.202264
-5.944670 9.997534 0.203027
-5.983739 9.986865 0.203216
-6.022871 9.976157 0.203408
-6.076240 9.988710 0.204078
-6.116752 9.979795 0.204314
-6.166301 9.985339 0.204850
-6.223786 10.003247 0.205644
-6.263358 9.992004 0.205844
-6.306521 9.986304 0.206161
-6.361087 9.998298 0.206847
-6.399300 9.984288 0.207000
-6.443794 9.979897 0.207356
-6.491776 9.980618 0.207822
-6.545747 9.990150 0.208476
-6.600285 10.000086 0.209144
-6.638827 9.985497 0.209303
-6.688101 9.986823 0.209800
-6.744801 9.998815 0.210526
-6.786037 9.987551 0.210767
-6.840453 9.995379 0.211415
-6.887025 9.991391 0.211817
-6.936174 9.990842 0.212298
-6.977119 9.978236 0.212526
-7.052287 10.014074 0.213791
-7.076136 9.976715 0.213499
-7.123857 9.972970 0.213929
-7.174272 9.972684 0.214438
-7.229846 9.979184 0.215097
-7.285712 9.985656 0.215762
-7.342808 9.993369 0.216460
-7.388088 9.984662 0.216806
-7.437282 9.980983 0.217267
-7.496950 9.990967 0.218030
-7.540673 9.979363 0.218327
-7.606579 9.996723 0.219264
-7.655787 9.991697 0.219715
-7.700941 9.981133 0.220049
-7.758781 9.986688 0.220744
-7.811582 9.985367 0.221293
-7.868750 9.989248 0.221962
-7.917776 9.982450 0.222400
-7.981657 9.993981 0.223252
-8.026826 9.981722 0.223578
-8.079762 9.978853 0.224119
-8.151903 9.999213 0.225189
-8.193383 9.981572 0.225409
-8.260664 9.995014 0.226337
-8.320803 9.999316 0.227065
-8.363693 9.982595 0.227320
-8.429362 9.992724 0.228193
-8.485262 9.990831 0.228798
-8.536008 9.982554 0.229263
-8.590811 9.978713 0.229835
-8.656795 9.987436 0.230703
-8.722321 9.995128 0.231555
-8.772136 9.984439 0.231988
-8.828848 9.981296 0.232601
-8.898782 9.992645 0.233559
-8.955490 9.988692 0.234168
-9.016592 9.989256 0.234888
-9.075290 9.986762 0.235544
-9.132707 9.982493 0.236164
-9.195187 9.983370 0.236913
-9.261459 9.987913 0.237756
-9.328090 9.992363 0.238605
-9.380252 9.980942 0.239082
-9.439901 9.977168 0.239748
-9.497047 9.970393 0.240349
-9.576229 9.986262 0.241505
-9.633265 9.978553 0.242098
-9.700240 9.980742 0.242939
-9.770969 9.986306 0.243870
-9.833024 9.982552 0.244582
-9.895664 9.978999 0.245307
-9.958793 9.975542 0.246041
-10.036066 9.985759 0.247122
-10.106267 9.988401 0.248024
-10.162123 9.976475 0.248573
-10.239217 9.984963 0.249638
-10.309105 9.985902 0.250524
-10.377458 9.984890 0.251371
-10.442554 9.980315 0.252135
-10.512024 9.979486 0.253003
-10.594316 9.990291 0.254176
-10.660903 9.985765 0.254969
-10.734346 9.987202 0.255924
-10.793440 9.974877 0.256534
-10.865053 9.973726 0.257439
-10.949237 9.983566 0.258639
-11.033510 9.992865 0.259837
-11.092113 9.978450 0.260428
-11.165806 9.977213 0.261371
-11.245514 9.980830 0.262452
-11.319953 9.979247 0.263407
-11.399425 9.981584 0.264476
-11.475955 9.980817 0.265474
-11.546322 9.974218 0.266327
-11.632142 9.980447 0.267533
-11.724519 9.991652 0.268885
-11.791252 9.980471 0.269647
-11.873599 9.982034 0.270763
-11.945681 9.974465 0.271643
-12.030177 9.976752 0.272802
-12.113218 9.977264 0.273925
-12.200968 9.981069 0.275151
-12.283527 9.980049 0.276257
-12.363672 9.976534 0.277305
-12.457512 9.983478 0.278658
-12.530323 9.973020 0.279537
-12.632021 9.984963 0.281057
-12.707798 9.975816 0.281998
-12.809337 9.986294 0.283506
-12.892815 9.982055 0.284611
-12.979457 9.979712 0.285784
-13.064098 9.975274 0.286909
-13.159671 9.978581 0.288272
-13.249673 9.977038 0.289509
-13.345216 9.979045 0.290864
-13.429877 9.972322 0.291979
-13.524470 9.972388 0.293307
-13.639727 9.986952 0.295079
-13.717919 9.973725 0.296045
-13.816251 9.974579 0.297444
-13.922606 9.980524 0.299011
-14.020013 9.979359 0.300383
-14.101724 9.966454 0.301416
-14.115096 9.905107 0.300990
-14.123462 9.840471 0.300464
-14.120008 9.767905 0.299692
-14.118466 9.697010 0.298967
-14.110339 9.621961 0.298110
-14.121651 9.560469 0.297670
-14.108212 9.482544 0.296715
-14.108844 9.414448 0.296063
-14.118091 9.352359 0.295597
-14.117870 9.284257 0.294939
-14.114960 9.214701 0.294231
-14.110009 9.144146 0.293488
-14.120457 9.083835 0.293070
-14.117784 9.015336 0.292385
-14.116386 8.947955 0.291733
-14.125874 8.887718 0.291312
-14.116640 8.815981 0.290510
-14.112375 8.747684 0.289817
-14.120398 8.687259 0.289382
-14.122422 8.623366 0.288830
-14.111479 8.551863 0.288018
-14.124389 8.495070 0.287698
-14.113667 8.424312 0.286903
-14.120250 8.364160 0.286465
-14.109928 8.294264 0.285690
-14.111905 8.231887 0.285170
-14.098148 8.160633 0.284337
-14.121202 8.110890 0.284252
-14.119191 8.046900 0.283667
-14.115221 7.982058 0.283048
-14.113958 7.919008 0.282488
-14.113469 7.856634 0.281950
-14.113294 7.794668 0.281423
-14.104310 7.728106 0.280725
-14.101503 7.665207 0.280156
-14.111622 7.609525 0.279849
-14.113741 7.549697 0.279387
-14.117295 7.490830 0.278959
-14.114629 7.428875 0.278412
-14.108205 7.365195 0.277797
-14.110854 7.306478 0.277365
-14.100405 7.241220 0.276681
-14.108059 7.185476 0.276357
-14.116228 7.130132 0.276047
-14.110418 7.067918 0.275469
-14.115355 7.011290 0.275105
-14.112957 6.951203 0.274602
-14.116638 6.894300 0.274222
-14.115489 6.835220 0.273753
-14.113934 6.776144 0.273281
-14.111041 6.716631 0.272787
-14.110765 6.658563 0.272349
-14.108898 6.599935 0.271884
-14.117447 6.546333 0.271625
-14.102020 6.481821 0.270908
-14.120232 6.432935 0.270842
-14.097566 6.365618 0.269996
-14.104900 6.312083 0.269730
-14.106093 6.255935 0.269350
-14.121330 6.206118 0.269242
-14.115710 6.147262 0.268741
-14.127702 6.096215 0.268578
-14.113062 6.033850 0.267914
-14.119118 5.980527 0.267647
-14.107146 5.919750 0.267042
-14.105073 5.863339 0.266629
-14.111674 5.810670 0.266384
-14.115920 5.757142 0.266099
-14.118652 5.703121 0.265788
-14.121601 5.649313 0.265486
-14.101851 5.586637 0.264761
-14.108511 5.534621 0.264536
-14.093266 5.474188 0.263904
-14.117427 5.429169 0.264014
-14.107876 5.371269 0.263498
-14.111575 5.318574 0.263232
-14.114376 5.265653 0.262953
-14.102253 5.207335 0.262401
-14.106523 5.155232 0.262157
-14.099986 5.099320 0.261717
-14.110332 5.049629 0.261593
-14.112432 4.997068 0.261320
-14.097106 4.938513 0.260728
-14.108297 4.889388 0.260630
-14.114582 4.838620 0.260445
-14.113621 4.785470 0.260130
-14.102309 4.728975 0.259628
-14.107375 4.678115 0.259431
-14.120383 4.629938 0.259383
-14.112367 4.574963 0.258953
-14.097019 4.517812 0.258392
-14.119257 4.472794 0.258523
-14.096159 4.413527 0.257827
-14.114740 4.367435 0.257898
-14.110629 4.314377 0.257557
-14.106329 4.261397 0.257216
-14.103223 4.208910 0.256901
-14.099561 4.156385 0.256579
-14.094073 4.103456 0.256227
-14.111682 4.057309 0.256299
-14.114869 4.007038 0.256111
-14.106717 3.953663 0.255721
-14.105235 3.902288 0.255456
-14.106598 3.851795 0.255245
-14.099555 3.799121 0.254886
-14.109554 3.751119 0.254838
-14.114800 3.701889 0.254707
-14.104738 3.648751 0.254303
-14.100215 3.597185 0.254003
-14.094621 3.545469 0.253686
-14.110332 3.499160 0.253757
-14.118371 3.450948 0.253692
-14.107719 3.398258 0.253294
-14.108563 3.348454 0.253106
-14.115809 3.300220 0.253036
-14.109183 3.248818 0.252721
-14.102072 3.197430 0.252400
-14.087689 3.144545 0.251953
-14.116986 3.101431 0.252289
-14.115871 3.051611 0.252085
-14.108092 3.000452 0.251765
-14.102329 2.949840 0.251484
-14.110977 2.902302 0.251463
-14.106685 2.852155 0.251215
-14.101730 2.801973 0.250958
-14.110565 2.754583 0.250950
-14.114788 2.706312 0.250862
-14.102541 2.654973 0.250485
-14.099855 2.605549 0.250280
-14.112022 2.558897 0.250343
-14.108540 2.509436 0.250130
-14.098540 2.458921 0.249805
-14.107294 2.411738 0.249816
-14.106361 2.362928 0.249658
-14.104465 2.314021 0.249485
-14.100104 2.264784 0.249272
-14.106633 2.217342 0.249255
-14.107640 2.169056 0.249143
-14.109912 2.121004 0.249056
-14.107295 2.072267 0.248886
-14.092488 2.021846 0.248504
-14.089010 1.973160 0.248324
-14.103338 1.926976 0.248462
-14.115674 1.880472 0.248566
-14.104746 1.830908 0.248264
-14.100525 1.782308 0.248084
-14.102542 1.734544 0.248015
-14.101671 1.686461 0.247899
-14.107239 1.639170 0.247899
-14.096566 1.590047 0.247616
-14.086161 1.541062 0.247342
-14.099584 1.494709 0.247488
-14.112770 1.448275 0.247633
-14.115364 1.400733 0.247594
-14.112314 1.352664 0.247460
-14.084206 1.302329 0.246889
-14.102905 1.256384 0.247142
-14.119732 1.210180 0.247364
-14.095538 1.160513 0.246871
-14.084887 1.112105 0.246617
-14.115723 1.066930 0.247093
-14.104061 1.018502 0.246828
-14.098577 0.970601 0.246674
-14.103276 0.923425 0.246700
-14.093099 0.875315 0.246470
-14.094255 0.827958 0.246440
-14.086143 0.780100 0.246251
-14.081584 0.732498 0.246127
-14.098445 0.685986 0.246380
-14.100835 0.638720 0.246383
-14.093173 0.591031 0.246213
-14.112438 0.544446 0.246516
-14.097797 0.496550 0.246230
-14.091973 0.449044 0.246101
-14.106442 0.402165 0.246329
-14.106503 0.354836 0.246307
-14.078288 0.306899 0.245795
-14.092108 0.259932 0.246020
-14.114898 0.213015 0.246404
-14.098902 0.165494 0.246114
-14.091731 0.118158 0.245980
-14.095531 0.070928 0.246041
-14.099583 0.023674 0.246109
-14.088035 0.000037 0.245907
-14.100443 -0.023676 0.738973
-14.110745 -0.071004 0.739521
-14.091216 -0.118153 0.738514
-14.103263 -0.165545 0.739170
-14.100238 -0.212793 0.739045
-14.097168 -0.260026 0.738926
-14.100278 -0.307378 0.739139
-14.097614 -0.354613 0.739057
-14.098170 -0.401929 0.739153
-14.101381 -0.449343 0.739396
-14.101617 -0.496684 0.739492
-14.099735 -0.543956 0.739484
-14.109766 -0.591727 0.740110
-14.098904 -0.638633 0.739649
-14.107248 -0.686414 0.740203
-14.101509 -0.733535 0.740027
-14.100414 -0.780890 0.740103
-14.098084 -0.828183 0.740122
-14.103856 -0.875983 0.740575
-14.098935 -0.923141 0.740475
-14.111422 -0.971485 0.741298
-14.088487 -1.017377 0.740268
-14.109179 -1.066435 0.741539
-14.103404 -1.113567 0.741427
-14.098437 -1.160752 0.741367
-14.095282 -1.208085 0.741410
-14.090314 -1.255262 0.741365
-14.100863 -1.303869 0.742146
-14.092962 -1.350809 0.741965
-14.092071 -1.398421 0.742160
-14.102106 -1.447180 0.742940
-14.095876 -1.494316 0.742872
-14.080673 -1.540462 0.742339
-14.097872 -1.590195 0.743522
-14.088125 -1.636950 0.743294
-14.097705 -1.685987 0.744093
-14.104599 -1.734797 0.744760
-14.100231 -1.782271 0.744841
-14.109743 -1.831557 0.745663
-14.102075 -1.878661 0.745587
-14.096776 -1.926079 0.745644
-14.088788 -1.973129 0.745567
-14.097966 -2.022632 0.746407
-14.100398 -2.071254 0.746900
-14.094836 -2.118738 0.746977
-14.094288 -2.167003 0.747329
-14.109070 -2.217725 0.748503
-14.090769 -2.263285 0.747930
-14.087777 -2.311283 0.748178
-14.109842 -2.363511 0.749767
-14.097889 -2.410130 0.749557
-14.090742 -2.457561 0.749611
-14.098370 -2.507627 0.750460
-14.105166 -2.557653 0.751274
-14.111264 -2.607657 0.752060
-14.111482 -2.656657 0.752542
-14.091291 -2.701807 0.751944
-14.104221 -2.753345 0.753123
-14.092029 -2.800045 0.752968
-14.095132 -2.849819 0.753641
-14.093121 -2.898629 0.754049
-14.098556 -2.949051 0.754864
-14.102883 -2.999344 0.755630
-14.102965 -3.048820 0.756178
-14.094636 -3.096521 0.756284
-14.094954 -3.146167 0.756862
-14.093218 -3.195423 0.757340
-14.087853 -3.243906 0.757632
-14.098976 -3.296284 0.758820
-14.100077 -3.346440 0.759479
-14.095026 -3.395201 0.759816
-14.093141 -3.444781 0.760333
-14.094215 -3.495163 0.761019
-14.094289 -3.545385 0.761660
-14.092836 -3.595303 0.762229
-14.094389 -3.646074 0.762970
-14.078030 -3.692245 0.762750
-14.069935 -3.740586 0.762987
-14.082674 -3.794572 0.764363
-14.088531 -3.846862 0.765377
-14.083152 -3.896178 0.765790
-14.096024 -3.950666 0.767206
-14.079382 -3.996963 0.767025
-14.101519 -4.054387 0.768967
-14.101233 -4.105541 0.769698
-14.089076 -4.153295 0.769790
-14.091112 -4.205296 0.770668
-14.090595 -4.256644 0.771416
-14.095386 -4.309716 0.772465
-14.094978 -4.361320 0.773239
-14.085067 -4.410054 0.773502
-14.090496 -4.463683 0.774618
-14.090655 -4.515773 0.775455
-14.089087 -4.567416 0.776207
-14.087791 -4.619251 0.776984
-14.089999 -4.672353 0.777966
-14.101534 -4.728715 0.779474
-14.092412 -4.778278 0.779851
-14.091428 -4.830682 0.780688
-14.103203 -4.887622 0.782244
-14.096150 -4.938179 0.782767
-14.088161 -4.988474 0.783247
-14.086142 -5.040972 0.784070
-14.089865 -5.095660 0.785224
-14.079613 -5.145397 0.785610
-14.100292 -5.206610 0.787733
-14.091871 -5.257257 0.788243
-14.098207 -5.313536 0.789590
-14.095508 -5.366560 0.790442
-14.087618 -5.417706 0.791013
-14.093861 -5.474419 0.792390
-14.082628 -5.524467 0.792796
-14.072344 -5.574948 0.793264
-14.087274 -5.635581 0.795167
-14.103002 -5.696798 0.797128
-14.100746 -5.750954 0.798086
-14.089948 -5.801724 0.798571
-14.086040 -5.855427 0.799458
-14.085885 -5.910829 0.800570
-14.084888 -5.966028 0.801645
-14.076931 -6.018402 0.802336
-14.093559 -6.081482 0.804442
-14.093574 -6.137622 0.805613
-14.103858 -6.198439 0.807384
-14.084439 -6.246332 0.807467
-14.091294 -6.305994 0.809067
-14.093694 -6.363870 0.810425
-14.086389 -6.417517 0.811238
-14.089739 -6.476176 0.812677
-14.073260 -6.525844 0.812984
-14.084565 -6.588552 0.814909
-14.091401 -6.649425 0.816589
-14.083117 -6.703340 0.817407
-14.096457 -6.767753 0.819494
-14.071557 -6.813947 0.819370
-14.089617 -6.881104 0.821760
-14.076456 -6.933225 0.822344
-14.079140 -6.993301 0.823866
-14.080316 -7.052839 0.825314
-14.095050 -7.119435 0.827572
-14.088431 -7.175479 0.828591
-14.077507 -7.229461 0.829370
-14.097676 -7.299654 0.831995
-14.078834 -7.349862 0.832333
-14.087318 -7.414502 0.834299
-14.086806 -7.474653 0.835748
-14.081739 -7.532578 0.836941
-14.088984 -7.597317 0.838881
-14.091990 -7.660036 0.840585
-14.087950 -7.719142 0.841883
-14.085132 -7.779115 0.843268
-14.071299 -7.833158 0.844008
-14.083805 -7.902090 0.846342
-14.079150 -7.961660 0.847662
-14.074465 -8.021408 0.848994
-14.095417 -8.096080 0.851891
-14.085748 -8.153455 0.852954
-14.091828 -8.220176 0.854986
-14.086258 -8.280350 0.856328
-14.088808 -8.345534 0.858179
-14.097246 -8.414510 0.860407
-14.084621 -8.471151 0.861365
-14.092481 -8.540350 0.863592
-14.080103 -8.597527 0.864595
-14.084097 -8.664926 0.866619
-14.072487 -8.722960 0.867700
-14.087819 -8.797982 0.870459
-14.072259 -8.853985 0.871327
