# This PCD file was generated using the MATLAB® pcwrite function
# from Computer Vision Toolbox®.
# .PCD v.7 - Point Cloud Data file format
VERSION .7
FIELDS x y z
SIZE 4 4 4
TYPE F F F
COUNT 1 1 1
WIDTH 1669
HEIGHT 1
VIEWPOINT 0 0 0 1 0 0 0
POINTS 1669
DATA ascii
-14.101123 -1.399319 1.239746
-14.105267 -1.447505 1.240530
-14.086455 -1.493317 1.239309
-14.091016 -1.541594 1.240158
-14.077293 -1.587874 1.239412
-14.095952 -1.637859 1.241531
-14.106770 -1.687071 1.242975
-14.091476 -1.733183 1.242133
-14.095510 -1.781674 1.243008
-14.082634 -1.828038 1.242406
-14.087888 -1.876771 1.243418
-14.095882 -1.925957 1.244686
-14.107045 -1.975686 1.246250
-14.087919 -2.021191 1.245152
-14.097491 -2.070827 1.246604
-14.086592 -2.117498 1.246261
-14.118237 -2.170685 1.249698
-14.090274 -2.214770 1.247873
-14.099765 -2.264730 1.249379
-14.090714 -2.311765 1.249257
-14.093105 -2.360707 1.250164
-14.108990 -2.412028 1.252283
-14.105863 -2.460198 1.252730
-14.086577 -2.505529 1.251757
-14.088962 -2.554715 1.252723
-14.096511 -2.604931 1.254164
-14.108492 -2.656094 1.256015
-14.082600 -2.700140 1.254509
-14.095496 -2.751642 1.256472
-14.097479 -2.801128 1.257479
-14.093578 -2.849505 1.257976
-14.104959 -2.901064 1.259853
-14.105144 -2.950429 1.260746
-14.102206 -2.999200 1.261375
-14.102024 -3.048617 1.262266
-14.103951 -3.098568 1.263362
-14.089028 -3.144844 1.262962
-14.097285 -3.196345 1.264656
-14.091454 -3.244735 1.265102
-14.092358 -3.294737 1.266168
-14.089772 -3.343994 1.266935
-14.107674 -3.398247 1.269562
-14.084134 -3.442579 1.268476
-14.087405 -3.493475 1.269818
-14.084382 -3.542893 1.270609
-14.099759 -3.597069 1.273077
-14.093734 -3.645904 1.273630
-14.102710 -3.698718 1.275554
-14.088843 -3.745613 1.275429
-14.114605 -3.803176 1.278908
-14.088077 -3.846738 1.277666
-14.094358 -3.899279 1.279414
-14.107479 -3.953876 1.281801
-14.082668 -3.997896 1.280758
-14.079699 -4.048113 1.281715
-14.095841 -4.103971 1.284430
-14.093760 -4.154675 1.285502
-14.092717 -4.205775 1.286686
-14.086088 -4.255283 1.287376
-14.094662 -4.309494 1.289473
-14.097873 -4.362216 1.291098
-14.090936 -4.411891 1.291810
-14.096505 -4.465586 1.293686
-14.086867 -4.514559 1.294183
-14.091513 -4.568202 1.296010
-14.088164 -4.619373 1.297119
-14.080529 -4.669213 1.297850
-14.095419 -4.726665 1.300676
-14.083827 -4.775367 1.301076
-14.090499 -4.830364 1.303182
-14.094854 -4.884729 1.305092
-14.097087 -4.938507 1.306824
-14.091225 -4.989559 1.307824
-14.082037 -5.039503 1.308532
-14.099495 -5.099143 1.311736
-14.101767 -5.153494 1.313547
-14.087424 -5.201859 1.313829
-14.099236 -5.260005 1.316568
-14.092773 -5.311489 1.317620
-14.098710 -5.367779 1.319850
-14.092434 -5.419558 1.320956
-14.099094 -5.476452 1.323294
-14.095967 -5.529700 1.324733
-14.091127 -5.582389 1.326030
-14.096994 -5.639469 1.328354
-14.088337 -5.690875 1.329329
-14.088703 -5.746042 1.331174
-14.093524 -5.803197 1.333460
-14.098259 -5.860507 1.335760
-14.079832 -5.908288 1.335883
-14.085036 -5.966091 1.338267
-14.081662 -6.020425 1.339857
-14.091427 -6.080562 1.342718
-14.081546 -6.132384 1.343728
-14.099077 -6.196338 1.347376
-14.094553 -6.250817 1.348939
-14.106342 -6.312728 1.352085
-14.090537 -6.362445 1.352608
-14.084988 -6.416879 1.354133
-14.077657 -6.470622 1.355506
-14.095591 -6.536198 1.359335
-14.086276 -6.589353 1.360560
-14.083060 -6.645489 1.362394
-14.098951 -6.710877 1.366100
-14.087762 -6.763578 1.367205
-14.096272 -6.825915 1.370245
-14.098061 -6.885228 1.372655
-14.081187 -6.935555 1.373268
-14.088402 -6.997901 1.376252
-14.089856 -7.057619 1.378698
-14.087832 -7.115789 1.380827
-14.082791 -7.172607 1.382682
-14.076715 -7.229053 1.384458
-14.097005 -7.299307 1.388852
-14.074177 -7.347431 1.389023
-14.088215 -7.414973 1.392854
-14.087004 -7.474758 1.395204
-14.098351 -7.541464 1.398824
-14.085320 -7.595342 1.400050
-14.068355 -7.647188 1.400905
-14.078248 -7.713827 1.404457
-14.089388 -7.781466 1.408163
-14.093050 -7.845267 1.411150
-14.075322 -7.897330 1.412019
-14.092619 -7.969277 1.416426
-14.084243 -8.026981 1.418282
-14.095105 -8.095901 1.422101
-14.085791 -8.153480 1.423911
-14.081331 -8.214052 1.426236
-14.091253 -8.283287 1.430046
-14.084941 -8.343244 1.432236
-14.085863 -8.407716 1.435189
-14.087387 -8.472815 1.438230
-14.090099 -8.538907 1.441422
-14.084375 -8.600135 1.443778
-14.094689 -8.671443 1.447808
-14.088312 -8.732769 1.450152
-14.080820 -8.793611 1.452407
-14.089397 -8.864768 1.456350
-14.084281 -8.927605 1.458907
-14.085250 -8.994560 1.462123
-14.088331 -9.063169 1.465589
-14.085552 -9.128296 1.468475
-14.078355 -9.190804 1.470929
-14.091893 -9.267174 1.475582
-14.091969 -9.335055 1.478859
-14.091206 -9.402678 1.482079
-14.074363 -9.459792 1.483635
-14.082006 -9.533628 1.487802
-14.074197 -9.597315 1.490368
-14.082722 -9.672460 1.494696
-14.081325 -9.741145 1.498006
-14.085959 -9.814342 1.501991
-13.989843 -9.817213 1.495244
-13.909196 -9.830383 1.490138
-13.804437 -9.825912 1.482436
-13.700603 -9.821379 1.474814
-13.607272 -9.823709 1.468305
-13.503752 -9.818013 1.460678
-13.409044 -9.818047 1.453986
-13.324110 -9.824651 1.448340
-13.232913 -9.826066 1.442000
-13.138718 -9.824633 1.435317
-13.045422 -9.823236 1.428715
-12.957452 -9.825245 1.422680
-12.852849 -9.813972 1.414800
-12.772884 -9.820881 1.409615
-12.691270 -9.826012 1.404235
-12.596588 -9.820434 1.397395
-12.517301 -9.826273 1.392246
-12.419084 -9.816648 1.384975
-12.334243 -9.816957 1.379176
-12.254467 -9.820757 1.373930
-12.157845 -9.810449 1.366777
-12.083128 -9.817230 1.362070
-12.001446 -9.817848 1.356566
-11.922527 -9.820198 1.351359
-11.848227 -9.825859 1.346664
-11.763108 -9.822020 1.340725
-11.678058 -9.817643 1.334776
-11.602783 -9.820946 1.329928
-11.520912 -9.818138 1.324310
-11.446362 -9.821045 1.319518
-11.370878 -9.822662 1.314605
-11.298038 -9.826078 1.309986
-11.214604 -9.819752 1.304122
-11.145931 -9.825836 1.299960
-11.053982 -9.810838 1.293065
-10.992770 -9.822597 1.289750
-10.918094 -9.821902 1.284845
-10.843565 -9.820834 1.279942
-10.774713 -9.824434 1.275695
-10.689668 -9.812729 1.269515
-10.622768 -9.817149 1.265471
-10.557991 -9.823122 1.261671
-10.483431 -9.819531 1.256688
-10.405051 -9.811816 1.251229
-10.348092 -9.823859 1.248334
-10.276227 -9.821351 1.243630
-10.205164 -9.819114 1.239007
-10.133905 -9.816195 1.234344
-10.065594 -9.815652 1.230025
-10.003695 -9.820941 1.226478
-9.935317 -9.819446 1.222124
-9.857074 -9.807664 1.216538
-9.802410 -9.818895 1.213848
-9.741275 -9.823310 1.210349
-9.673333 -9.820433 1.205992
-9.604003 -9.815660 1.201444
-9.547841 -9.823936 1.198532
-9.479957 -9.819750 1.194137
-9.409645 -9.812546 1.189418
-9.348759 -9.814713 1.185874
-9.282644 -9.810961 1.181654
-9.220218 -9.810660 1.177888
-9.161407 -9.813812 1.174572
-9.096676 -9.810205 1.170483
-9.052286 -9.828220 1.169005
-8.981850 -9.817599 1.164153
-8.922155 -9.818247 1.160676
-8.856362 -9.811741 1.156390
-8.799905 -9.815156 1.153309
-8.737372 -9.811396 1.149418
-8.678123 -9.810896 1.145944
-8.629356 -9.821927 1.143847
-8.571172 -9.821922 1.140493
-8.501749 -9.808559 1.135625
-8.453759 -9.819520 1.133606
-8.387033 -9.808334 1.129062
-8.340078 -9.819887 1.127167
-8.278123 -9.813436 1.123234
-8.223743 -9.815557 1.120315
-8.167385 -9.814951 1.117114
-8.105980 -9.807855 1.113207
-8.059745 -9.818769 1.111372
-8.004601 -9.818532 1.108301
-7.941688 -9.808326 1.104137
-7.888443 -9.809636 1.101301
-7.828529 -9.802247 1.097519
-7.780900 -9.809882 1.095447
-7.727948 -9.810502 1.092616
-7.681106 -9.818582 1.090642
-7.624317 -9.813613 1.087244
-7.569661 -9.810982 1.084135
-7.512953 -9.805284 1.080716
-7.461108 -9.805542 1.077981
-7.416242 -9.814690 1.076247
-7.360956 -9.809732 1.072991
-7.313025 -9.814227 1.070795
-7.258444 -9.809454 1.067613
-7.212783 -9.816408 1.065731
-7.155695 -9.807457 1.062149
-7.104748 -9.806515 1.059461
-7.058462 -9.811700 1.057459
-7.014627 -9.820054 1.055818
-6.965285 -9.820426 1.053342
-6.902881 -9.801922 1.048868
-6.862024 -9.813636 1.047654
-6.809384 -9.808214 1.044632
-6.763626 -9.812369 1.042654
-6.723175 -9.824012 1.041489
-6.669042 -9.815359 1.038196
-6.619657 -9.813294 1.035624
-6.573655 -9.815929 1.033570
-6.523240 -9.811642 1.030810
-6.476058 -9.811869 1.028547
-6.426707 -9.808472 1.025926
-6.375364 -9.801643 1.022971
-6.331923 -9.806636 1.021270
-6.279060 -9.796688 1.018036
-6.243566 -9.813580 1.017610
-6.190559 -9.802679 1.014322
-6.152149 -9.814592 1.013415
-6.099281 -9.803136 1.010115
-6.061161 -9.815082 1.009246
-6.013791 -9.811809 1.006830
-5.959022 -9.796017 1.003154
-5.924726 -9.813592 1.002914
-5.878444 -9.811128 1.000642
-5.828042 -9.801394 0.997651
-5.794857 -9.820387 0.997601
-5.749654 -9.818851 0.995481
-5.699300 -9.808128 0.992451
-5.661038 -9.817911 0.991515
-5.600979 -9.789454 0.986739
-5.570549 -9.812448 0.987168
-5.524047 -9.806976 0.984749
-5.478088 -9.802096 0.982409
-5.440892 -9.812652 0.981633
-5.388257 -9.795018 0.978056
-5.356249 -9.814612 0.978214
-5.309895 -9.807732 0.975749
-5.273143 -9.818334 0.975039
-5.228413 -9.813844 0.972847
-5.180806 -9.803553 0.970099
-5.142032 -9.809658 0.968992
-5.101055 -9.811343 0.967463
-5.051941 -9.796996 0.964373
-5.015044 -9.806016 0.963600
-4.970963 -9.800742 0.961439
-4.937761 -9.816730 0.961378
-4.894752 -9.813046 0.959405
-4.848997 -9.803471 0.956873
-4.809685 -9.806593 0.955599
-4.765687 -9.799856 0.953380
-4.728574 -9.807010 0.952528
-4.692675 -9.816549 0.951921
-4.647791 -9.807025 0.949481
-4.606092 -9.803841 0.947672
-4.571593 -9.815787 0.947340
-4.533383 -9.819637 0.946240
-4.493302 -9.819196 0.944740
-4.446128 -9.802839 0.941727
-4.407226 -9.804319 0.940444
-4.375196 -9.820986 0.940630
-4.329022 -9.805654 0.937766
-4.289207 -9.804306 0.936257
-4.248543 -9.800715 0.934548
-4.212189 -9.806824 0.933779
-4.170319 -9.799823 0.931776
-4.132731 -9.802585 0.930716
-4.093310 -9.800748 0.929233
-4.058451 -9.809639 0.928781
-4.023594 -9.818448 0.928332
-3.979618 -9.804697 0.925765
-3.941966 -9.806154 0.924650
-3.906355 -9.812505 0.924008
-3.864416 -9.802673 0.921857
-3.831094 -9.814465 0.921753
-3.788060 -9.801105 0.919300
-3.751764 -9.804831 0.918465
-3.714793 -9.806593 0.917458
-3.678561 -9.810108 0.916628
-3.642196 -9.813085 0.915760
-3.602121 -9.805768 0.913945
-3.564961 -9.806064 0.912853
-3.533135 -9.820943 0.913130
-3.490487 -9.805483 0.910600
-3.455789 -9.812012 0.910125
-3.416160 -9.804280 0.908340
-3.379756 -9.805487 0.907397
-3.339807 -9.796074 0.905485
-3.309673 -9.815310 0.906232
-3.270887 -9.808784 0.904612
-3.228315 -9.790379 0.901911
-3.199156 -9.812448 0.902951
-3.160173 -9.804301 0.901221
-3.124878 -9.807294 0.900528
-3.090333 -9.812489 0.900049
-3.048888 -9.795399 0.897538
-3.017768 -9.811218 0.898056
-2.980027 -9.805393 0.896603
-2.944013 -9.804933 0.895653
-2.914077 -9.824710 0.896562
-2.872021 -9.803366 0.893731
-2.837546 -9.807444 0.893230
-2.801907 -9.807309 0.892357
-2.768815 -9.815962 0.892295
-2.732393 -9.812636 0.891155
-2.693755 -9.800921 0.889266
-2.658494 -9.801105 0.888469
-2.622131 -9.796935 0.887289
-2.587802 -9.800117 0.886786
-2.552702 -9.800184 0.886013
-2.521003 -9.813257 0.886425
-2.484138 -9.806065 0.885018
-2.449715 -9.808209 0.884466
-2.414859 -9.808419 0.883749
-2.380503 -9.810456 0.883209
-2.339393 -9.784071 0.880122
-2.310068 -9.806687 0.881455
-2.275885 -9.808818 0.880956
-2.239826 -9.802567 0.879715
-2.205575 -9.803920 0.879168
-2.170011 -9.799153 0.878083
-2.135516 -9.798905 0.877414
-2.102530 -9.805447 0.877364
-2.067540 -9.802474 0.876473
-2.032991 -9.801292 0.875753
-2.001970 -9.817137 0.876564
-1.965957 -9.808397 0.875190
-1.931081 -9.804884 0.874294
-1.897066 -9.805461 0.873773
-1.862216 -9.801430 0.872853
-1.829679 -9.809417 0.873013
-1.795313 -9.807489 0.872301
-1.761320 -9.807327 0.871756
-1.726460 -9.801999 0.870763
-1.691689 -9.796752 0.869788
-1.658577 -9.800853 0.869654
-1.623059 -9.790384 0.868237
-1.592017 -9.806813 0.869216
-1.557922 -9.804507 0.868543
-1.523907 -9.802388 0.867898
-1.490769 -9.805704 0.867744
-1.455683 -9.795839 0.866435
-1.423641 -9.806243 0.866928
-1.388223 -9.793102 0.865350
-1.356235 -9.803870 0.865894
-1.322376 -9.801095 0.865253
-1.289675 -9.806751 0.865366
-1.256390 -9.807915 0.865092
-1.222084 -9.800726 0.864091
-1.188309 -9.797282 0.863432
-1.155041 -9.797706 0.863123
-1.124021 -9.817564 0.864535
-1.090578 -9.816593 0.864123
-1.057474 -9.818484 0.863973
-1.022610 -9.803388 0.862338
-0.988816 -9.797655 0.861537
-0.955768 -9.798931 0.861362
-0.922193 -9.794487 0.860695
-0.890251 -9.807456 0.861568
-0.855675 -9.791066 0.859871
-0.825533 -9.825911 0.862683
-0.790471 -9.802412 0.860383
-0.756954 -9.796646 0.859649
-0.724203 -9.800470 0.859767
-0.690977 -9.797694 0.859315
-0.658004 -9.798189 0.859160
-0.624252 -9.786283 0.857928
-0.591984 -9.797369 0.858721
-0.559170 -9.799969 0.858779
-0.526067 -9.797277 0.858384
-0.492915 -9.793001 0.857860
-0.460621 -9.806170 0.858873
-0.427525 -9.802718 0.858441
-0.394742 -9.806238 0.858628
-0.361082 -9.786366 0.856777
-0.329012 -9.809723 0.858721
-0.295597 -9.793433 0.857203
-0.262531 -9.785839 0.856457
-0.230271 -9.810145 0.858512
-0.197357 -9.809829 0.858421
-0.164230 -9.796412 0.857194
-0.131535 -9.808177 0.858180
-0.098552 -9.798873 0.857332
-0.065664 -9.794160 0.856896
-0.032843 -9.799429 0.857342
0.000013 -9.797929 0.857206
0.032863 -9.797815 0.857201
0.065709 -9.797035 0.857148
0.098596 -9.800662 0.857489
0.131468 -9.801254 0.857575
0.164288 -9.798322 0.857361
0.197087 -9.795128 0.857135
0.230186 -9.805411 0.858097
0.262928 -9.799683 0.857668
0.295877 -9.801837 0.857939
0.328947 -9.806985 0.858481
0.361621 -9.800290 0.857997
0.394589 -9.801783 0.858238
0.427419 -9.799689 0.858176
0.459996 -9.792305 0.857659
0.493081 -9.795781 0.858104
0.526146 -9.798264 0.858471
0.558754 -9.792221 0.858101
0.592704 -9.808857 0.859728
0.625086 -9.798942 0.859038
0.658079 -9.798905 0.859223
0.690581 -9.791718 0.858791
0.723740 -9.793848 0.859186
0.757146 -9.798789 0.859837
0.791017 -9.808868 0.860949
0.823112 -9.796777 0.860126
0.856183 -9.796587 0.860356
0.889552 -9.799466 0.860866
0.921618 -9.788096 0.860134
0.957649 -9.817950 0.863035
0.989094 -9.800145 0.861756
1.022739 -9.804369 0.862424
1.055859 -9.803244 0.862632
1.089482 -9.806489 0.863234
1.121228 -9.792940 0.862367
1.153646 -9.785654 0.862061
1.189019 -9.802916 0.863928
1.219842 -9.782537 0.862488
1.255449 -9.800365 0.864426
1.288788 -9.799806 0.864753
1.322253 -9.799987 0.865155
1.354972 -9.794550 0.865072
1.389689 -9.803257 0.866247
1.423567 -9.805548 0.866867
1.455152 -9.792081 0.866103
1.489831 -9.799361 0.867183
1.520821 -9.782363 0.866125
1.556463 -9.795159 0.867716
1.589561 -9.791517 0.867860
1.624680 -9.800002 0.869090
1.660637 -9.812871 0.870720
1.691082 -9.793081 0.869463
1.726271 -9.800778 0.870655
1.760219 -9.801043 0.871198
1.792240 -9.790551 0.870794
1.827049 -9.795174 0.871746
1.862393 -9.802223 0.872924
1.894999 -9.794637 0.872809
1.930233 -9.800441 0.873898
1.965017 -9.803569 0.874760
2.000130 -9.807982 0.875747
2.029712 -9.785357 0.874329
2.064680 -9.788787 0.875249
2.103289 -9.808862 0.877670
2.138506 -9.812498 0.878632
2.169789 -9.798028 0.877983
2.204198 -9.797680 0.878609
2.238341 -9.795947 0.879122
2.271585 -9.790164 0.879281
2.306593 -9.791817 0.880119
2.343371 -9.800593 0.881609
2.377630 -9.798504 0.882134
2.411056 -9.792860 0.882348
2.445857 -9.792651 0.883063
2.481098 -9.793959 0.883926
2.516287 -9.794791 0.884758
2.551717 -9.796299 0.885662
2.589135 -9.805060 0.887234
2.620274 -9.789893 0.886652
2.657231 -9.796346 0.888038
2.694803 -9.804632 0.889603
2.725403 -9.787433 0.888867
2.761722 -9.790715 0.890001
2.793375 -9.777349 0.889632
2.832771 -9.790843 0.891719
2.870986 -9.799738 0.893401
2.902907 -9.786957 0.893118
2.940590 -9.793440 0.894604
2.978485 -9.800224 0.896131
3.015920 -9.805120 0.897498
3.052230 -9.806043 0.898514
3.083677 -9.791264 0.898103
3.125126 -9.807981 0.900592
3.158902 -9.800269 0.900851
3.193576 -9.795245 0.901369
3.230963 -9.798322 0.902644
3.262774 -9.784366 0.902361
3.306553 -9.805971 0.905370
3.340956 -9.799358 0.905789
3.375139 -9.792007 0.906151
3.413441 -9.796393 0.907610
3.446539 -9.785666 0.907682
3.486884 -9.795280 0.909653
3.522021 -9.789967 0.910251
3.560580 -9.793934 0.911725
3.594763 -9.785657 0.912071
3.633118 -9.788547 0.913471
3.676325 -9.804067 0.916064
3.706480 -9.784568 0.915398
3.749803 -9.799625 0.917978
3.784342 -9.791409 0.918392
3.824498 -9.797490 0.920160
3.861694 -9.795692 0.921202
3.899751 -9.795841 0.922440
3.941881 -9.805868 0.924624
3.978768 -9.802529 0.925562
4.015320 -9.798183 0.926417
4.053710 -9.798106 0.927690
4.096273 -9.807769 0.929900
4.128545 -9.792583 0.929767
4.167220 -9.792468 0.931078
4.203823 -9.787275 0.931919
4.246515 -9.795964 0.934097
4.280479 -9.784288 0.934346
4.328105 -9.803507 0.937562
4.366274 -9.800891 0.938707
4.400569 -9.789443 0.939018
4.440814 -9.791054 0.940596
4.477855 -9.785370 0.941487
4.519464 -9.789419 0.943329
4.563109 -9.797503 0.945577
4.605903 -9.803370 0.947628
4.639986 -9.790488 0.947881
4.681873 -9.793888 0.949725
4.723639 -9.796707 0.951529
4.757334 -9.782615 0.951704
4.803421 -9.793757 0.954349
4.848673 -9.802752 0.956805
4.880754 -9.784918 0.956656
4.928058 -9.797375 0.959484
4.969886 -9.798555 0.961226
5.009590 -9.795288 0.962547
5.049598 -9.792389 0.963921
5.085347 -9.781069 0.964480
5.134437 -9.795106 0.967556
5.175277 -9.793026 0.969059
5.218005 -9.794245 0.970905
5.252166 -9.779213 0.971155
5.303048 -9.795023 0.974486
5.340072 -9.784907 0.975255
5.378250 -9.776767 0.976235
5.432958 -9.798282 0.980197
5.465431 -9.779388 0.980135
5.516464 -9.793453 0.983393
5.557030 -9.788574 0.984768
5.599720 -9.787193 0.986512
5.639870 -9.781139 0.987803
5.686389 -9.785851 0.990198
5.738749 -9.800169 0.993588
5.777757 -9.791350 0.994653
5.824344 -9.795115 0.997013
5.864617 -9.787992 0.998284
5.915469 -9.798199 1.001342
5.964277 -9.804596 1.004034
5.993011 -9.777846 1.003347
6.044731 -9.788417 1.006506
6.092688 -9.792480 1.009018
6.140858 -9.796520 1.011550
6.187431 -9.797668 1.013805
6.214624 -9.768031 1.012889
6.272527 -9.786438 1.016973
6.311436 -9.774850 1.017962
6.366891 -9.788560 1.021607
6.408110 -9.780032 1.022954
6.460561 -9.788333 1.026082
6.502355 -9.780172 1.027506
6.551829 -9.783282 1.030135
6.592339 -9.772742 1.031346
6.654748 -9.794267 1.035967
6.696598 -9.785121 1.037368
6.751361 -9.794519 1.040759
6.794623 -9.786896 1.042364
6.853902 -9.801964 1.046410
6.889735 -9.783199 1.046867
6.937667 -9.781433 1.049161
6.992080 -9.788434 1.052421
7.047890 -9.796949 1.055871
7.089873 -9.785930 1.057239
7.143802 -9.791102 1.060380
7.185891 -9.779754 1.061754
7.240118 -9.784632 1.064913
7.291449 -9.785218 1.067632
7.354471 -9.801036 1.072042
7.393054 -9.783950 1.072878
7.445555 -9.785048 1.075730
7.494153 -9.780692 1.078007
7.554357 -9.791093 1.081939
7.597347 -9.778845 1.083395
7.660411 -9.792075 1.087700
7.707621 -9.784643 1.089739
7.760425 -9.784014 1.092560
7.820448 -9.792075 1.096382
7.867961 -9.784113 1.098438
7.920912 -9.782615 1.101245
7.986013 -9.795678 1.105724
8.032290 -9.785268 1.107582
8.085440 -9.782948 1.110382
8.141226 -9.783463 1.113532
8.193954 -9.779948 1.116253
8.248147 -9.777847 1.119164
8.308590 -9.782760 1.122908
8.372231 -9.790969 1.127066
8.420227 -9.780519 1.129106
8.486679 -9.791120 1.133609
8.534738 -9.780119 1.135642
8.598328 -9.786558 1.139731
8.663475 -9.794285 1.144007
8.712199 -9.783076 1.146103
8.773419 -9.785563 1.149834
8.824783 -9.776703 1.152263
8.895776 -9.789165 1.157241
8.951872 -9.784781 1.160264
9.008859 -9.781018 1.163393
9.080394 -9.792593 1.168384
9.131947 -9.782201 1.170791
9.193815 -9.782515 1.174511
9.272643 -9.800339 1.180377
9.317392 -9.781731 1.181892
9.376066 -9.777476 1.185170
9.439758 -9.778058 1.189070
9.508901 -9.783817 1.193641
9.573801 -9.784739 1.197663
9.643167 -9.789755 1.202227
9.702229 -9.783883 1.205494
9.757959 -9.774319 1.208340
9.823479 -9.774185 1.212389
9.898319 -9.782827 1.217570
9.965275 -9.783172 1.221765
10.019773 -9.770917 1.224423
10.103678 -9.786863 1.230659
10.157421 -9.773126 1.233207
10.239719 -9.786407 1.239208
10.296131 -9.774479 1.242062
10.371242 -9.779882 1.247161
10.444488 -9.783002 1.252017
10.507167 -9.775783 1.255595
10.583512 -9.780819 1.260792
10.648683 -9.775054 1.264644
10.731539 -9.785016 1.270581
10.803881 -9.784841 1.275254
10.866482 -9.775419 1.278768
10.938570 -9.774114 1.283387
11.015195 -9.776361 1.288524
11.097610 -9.783186 1.294321
11.172951 -9.783226 1.299275
11.257804 -9.791035 1.305317
11.325152 -9.783110 1.309316
11.408266 -9.788306 1.315123
11.482448 -9.785306 1.319885
11.557572 -9.782624 1.324743
11.632049 -9.778912 1.329514
11.717053 -9.783512 1.335473
11.795321 -9.781932 1.340648
11.877335 -9.782922 1.346234
11.965241 -9.788178 1.352470
12.033203 -9.776614 1.356440
12.125371 -9.784190 1.363124
12.202020 -9.778672 1.368047
12.281614 -9.775016 1.373289
12.377934 -9.784068 1.380383
12.458535 -9.780087 1.385707
12.560286 -9.792078 1.393365
12.634324 -9.781869 1.397932
12.720544 -9.780584 1.403835
12.805988 -9.778136 1.409639
12.908798 -9.788299 1.417336
12.996744 -9.786529 1.423381
13.064939 -9.769409 1.427254
13.161046 -9.772647 1.434166
13.265282 -9.781219 1.441943
13.359449 -9.781679 1.448606
13.449644 -9.778619 1.454822
13.538003 -9.773645 1.460827
13.648783 -9.784177 1.469233
13.736668 -9.777619 1.475156
13.832630 -9.776216 1.481933
13.938974 -9.781461 1.489804
14.037605 -9.780597 1.496832
14.136417 -9.779202 1.503864
14.246679 -9.785015 1.512095
14.341048 -9.779228 1.518623
14.437322 -9.774124 1.525339
14.543468 -9.775036 1.533082
14.657167 -9.780272 1.541602
14.754773 -9.774065 1.548413
14.855229 -9.769106 1.555509
14.981677 -9.780465 1.565307
15.094563 -9.782139 1.573666
15.186768 -9.769747 1.579855
15.306144 -9.774141 1.588855
15.425286 -9.777571 1.597811
15.535016 -9.774265 1.605773
15.654106 -9.776086 1.614686
15.718864 -9.743423 1.617987
15.730100 -9.677535 1.615794
15.709340 -9.592306 1.610349
15.721931 -9.527775 1.608356
15.723073 -9.456535 1.605220
15.707276 -9.375465 1.600390
15.708418 -9.304858 1.597318
15.713028 -9.236561 1.594629
15.718163 -9.168809 1.592021
15.723337 -9.101309 1.589446
15.726974 -9.033154 1.586743
15.723958 -8.961443 1.583398
15.706317 -8.881757 1.578614
15.714885 -8.817195 1.576495
15.707972 -8.744201 1.572852
15.712478 -8.677831 1.570381
15.714343 -8.610230 1.567673
15.703268 -8.535830 1.563704
15.710342 -8.471562 1.561572
15.717381 -8.407460 1.559461
15.717721 -8.339985 1.556711
15.710571 -8.268806 1.553248
15.712361 -8.202593 1.550698
15.707254 -8.133027 1.547494
15.716254 -8.070981 1.545706
15.704156 -7.998343 1.541870
15.715777 -7.938015 1.540389
15.718801 -7.873506 1.538089
15.705930 -7.801298 1.534262
15.716882 -7.741149 1.532788
15.709075 -7.671965 1.529509
15.699569 -7.602236 1.526093
15.697261 -7.536253 1.523404
15.697533 -7.471725 1.520991
15.715601 -7.415799 1.520324
15.718904 -7.353022 1.518250
15.706341 -7.283061 1.514669
15.708324 -7.220088 1.512517
15.712924 -7.158488 1.510641
15.709461 -7.093404 1.508013
15.711045 -7.030798 1.505894
15.710506 -6.967429 1.503594
15.696726 -6.898431 1.500054
15.703962 -6.838881 1.498545
15.713003 -6.780236 1.497230
15.720514 -6.721045 1.495790
15.702461 -6.651145 1.491943
15.702636 -6.589213 1.489852
15.709301 -6.530151 1.488398
15.709734 -6.468644 1.486376
15.710625 -6.407490 1.484419
15.706246 -6.344368 1.481988
15.709493 -6.284497 1.480297
15.728008 -6.230814 1.480065
15.714971 -6.164771 1.476885
15.710511 -6.102320 1.474535
15.705876 -6.039995 1.472191
15.702991 -5.978527 1.470033
15.713961 -5.922457 1.469193
15.710021 -5.860893 1.466979
15.699617 -5.797122 1.464184
15.703470 -5.738789 1.462741
15.710438 -5.681699 1.461607
15.710339 -5.622172 1.459836
15.713683 -5.564008 1.458405
15.709289 -5.503248 1.456277
15.698775 -5.440539 1.453603
15.713353 -5.386648 1.453272
15.709182 -5.326426 1.451227
15.720656 -5.271615 1.450646
15.703527 -5.207365 1.447446
15.715921 -5.153053 1.446988
15.714755 -5.094381 1.445300
15.697845 -5.030799 1.442185
15.707884 -4.976004 1.441566
15.719822 -4.921852 1.441139
15.715425 -4.862679 1.439234
15.700079 -4.800312 1.436346
15.694959 -4.741263 1.434415
15.717764 -4.690702 1.435054
15.717345 -4.633244 1.433589
15.699046 -4.570695 1.430515
15.718554 -4.519262 1.430903
15.702607 -4.457732 1.428083
15.709814 -4.402915 1.427388
15.695551 -4.342212 1.424761
15.717802 -4.291688 1.425467
15.716539 -4.234772 1.424057
15.707206 -4.175820 1.421934
15.712687 -4.120923 1.421172
15.712413 -4.064596 1.419906
15.704945 -4.006533 1.418010
15.702186 -3.949803 1.416557
15.719759 -3.898231 1.416955
15.705047 -3.838734 1.414461
15.690886 -3.779567 1.412036
15.702489 -3.726704 1.411948
15.726389 -3.676723 1.412981
15.708667 -3.617075 1.410291
15.715589 -3.563227 1.409832
15.702184 -3.504876 1.407567
15.709894 -3.451342 1.407213
15.713483 -3.396943 1.406507
15.699962 -3.338961 1.404286
15.705452 -3.285128 1.403784
15.704678 -3.230046 1.402739
15.709056 -3.176086 1.402171
15.711769 -3.121840 1.401471
15.700297 -3.064878 1.399523
15.701978 -3.010590 1.398766
15.716720 -2.958819 1.399187
15.725016 -2.905823 1.399051
15.716975 -2.849875 1.397477
15.701626 -2.792749 1.395272
15.703764 -2.738844 1.394638
15.698280 -2.683685 1.393344
15.705254 -2.630712 1.393173
15.691388 -2.574333 1.391169
15.719749 -2.524892 1.392925
15.704411 -2.468444 1.390825
15.697465 -2.413450 1.389485
15.700590 -2.360072 1.389054
15.712432 -2.308008 1.389409
15.708326 -2.253628 1.388370
15.710770 -2.200244 1.387926
15.708014 -2.146184 1.387039
15.712502 -2.093157 1.386808
15.702376 -2.038251 1.385303
15.701766 -1.984662 1.384655
15.701449 -1.931160 1.384048
15.701415 -1.877737 1.383482
15.718040 -1.826293 1.384400
15.699476 -1.770808 1.382234
15.711166 -1.718800 1.382748
15.692542 -1.663538 1.380610
15.698833 -1.610997 1.380681
15.700150 -1.557956 1.380329
15.701449 -1.504940 1.379992
15.710526 -1.452668 1.380354
15.710737 -1.399579 1.379953
15.695415 -1.345188 1.378203
15.703564 -1.292863 1.378530
15.693377 -1.239065 1.377263
15.711533 -1.187506 1.378500
15.693943 -1.133271 1.376615
15.698657 -1.080714 1.376703
15.701851 -1.028051 1.376673
15.697011 -0.974891 1.375955
15.694429 -0.921918 1.375450
15.693437 -0.869071 1.375099
15.692935 -0.816276 1.374808
15.713883 -0.764546 1.376411
15.707674 -0.711463 1.375650
15.714829 -0.658998 1.376076
15.700743 -0.605680 1.374657
15.698151 -0.552875 1.374260
15.702291 -0.500315 1.374468
15.702604 -0.447629 1.374356
15.709476 -0.395116 1.374834
15.702401 -0.342262 1.374106
15.706482 -0.289668 1.374371
15.686480 -0.236691 1.372543
15.696317 -0.184203 1.373342
15.696633 -0.131573 1.373324
15.690975 -0.078914 1.372798
15.709904 -0.026336 1.374438
15.691344 0.026305 1.372815
15.690139 0.078910 1.372725
15.700724 0.131607 1.373682
15.693757 0.184173 1.373118
15.698278 0.236869 1.373576
15.723037 0.289973 1.375819
15.690469 0.342001 1.373062
15.699146 0.394856 1.373930
15.692745 0.447348 1.373493
15.703582 0.500356 1.374581
15.689831 0.552582 1.373531
15.706712 0.605910 1.375179
15.697451 0.658269 1.374554
15.705981 0.711386 1.375502
15.705191 0.764123 1.375649
15.687049 0.815970 1.374292
15.710501 0.870016 1.376595
15.679444 0.921038 1.374136
15.694407 0.974729 1.375726
15.691041 1.027344 1.375725
15.705542 1.081188 1.377307
15.688759 1.132896 1.376161
15.694913 1.186250 1.377041
15.686324 1.238508 1.376644
15.707459 1.293184 1.378872
15.690673 1.344781 1.377787
15.699944 1.398617 1.379005
15.688502 1.450632 1.378419
15.701561 1.504951 1.380002
15.699763 1.557918 1.380295
15.693417 1.610441 1.380204
15.705303 1.664891 1.381733
15.691104 1.716605 1.380982
15.703825 1.771299 1.382617
15.695379 1.823660 1.382404
15.684949 1.875768 1.382031
15.693868 1.930227 1.383380
15.688121 1.982938 1.383451
15.683920 2.035855 1.383675
15.683289 2.089266 1.384229
15.698095 2.144829 1.386163
15.698038 2.198461 1.386801
15.696327 2.251906 1.387309
15.704832 2.306892 1.388737
15.684942 2.357720 1.387669
15.706816 2.414888 1.390313
15.684496 2.465314 1.389061
15.683542 2.519076 1.389717
15.696460 2.575165 1.391619
15.688120 2.627842 1.391653
15.694052 2.682962 1.392969
15.685307 2.735625 1.392999
15.688765 2.790462 1.394129
15.679631 2.843104 1.394157
15.697708 2.900777 1.396621
15.701736 2.955998 1.397853
15.697168 3.009668 1.398337
15.714601 3.067670 1.400798
15.696658 3.118837 1.400123
15.690385 3.172312 1.400505
15.697502 3.228570 1.402098
15.699409 3.283864 1.403244
15.692430 3.337359 1.403613
15.696629 3.393300 1.404998
15.702857 3.449796 1.406583
15.704550 3.505404 1.407779
15.687579 3.556876 1.407319
15.705420 3.616328 1.409999
15.691760 3.668627 1.409869
15.694416 3.724788 1.411222
15.687989 3.778869 1.411776
15.691596 3.835446 1.413249
15.702248 3.893888 1.415377
15.686179 3.945777 1.415113
15.702658 4.005949 1.417803
15.713805 4.064956 1.420032
15.691606 4.115394 1.419265
15.688903 4.170955 1.420277
15.688935 4.227334 1.421556
15.693003 4.284917 1.423218
15.685599 4.339459 1.423858
15.697469 4.399455 1.426266
15.705031 4.458420 1.428304
15.694741 4.512415 1.428736
15.682187 4.565787 1.428978
15.695292 4.626742 1.431578
15.702488 4.686143 1.433659
15.686584 4.738733 1.433650
15.691422 4.797664 1.435554
15.702930 4.858813 1.438089
15.689792 4.912449 1.438386
15.700753 4.973745 1.440912
15.694983 5.029882 1.441922
15.697074 5.088649 1.443673
15.680692 5.141501 1.443744
15.688236 5.202294 1.446036
15.682945 5.258969 1.447166
15.680526 5.316710 1.448579
15.690702 5.378883 1.451177
15.696774 5.439846 1.453418
15.685340 5.494858 1.454057
15.707233 5.561724 1.457807
15.682199 5.612103 1.457222
15.690610 5.674529 1.459763
15.700971 5.737876 1.462508
15.701831 5.797940 1.464391
15.680481 5.849873 1.464221
15.693817 5.914865 1.467309
15.696292 5.975976 1.469406
15.678784 6.029576 1.469651
15.692084 6.095163 1.472805
15.708137 6.162090 1.476243
15.685588 6.214008 1.476073
15.680429 6.272871 1.477559
15.694872 6.339774 1.480914
15.682584 6.396053 1.481770
15.684678 6.458327 1.484005
15.699751 6.526182 1.487494
15.704547 6.590015 1.490033
15.693784 6.647470 1.491118
15.684233 6.705534 1.492338
15.702245 6.775594 1.496205
15.690801 6.833150 1.497289
15.685874 6.893662 1.499017
15.680247 6.954010 1.500698
15.691851 7.022209 1.504054
15.694314 7.086565 1.506559
15.686074 7.146255 1.508060
15.679753 7.206956 1.509766
15.691675 7.276260 1.513255
15.678990 7.334350 1.514395
15.695585 7.406353 1.518387
15.687060 7.466740 1.519976
15.695154 7.535242 1.523200
15.682270 7.593860 1.524412
15.677236 7.656415 1.526409
15.685052 7.725472 1.529683
15.694784 7.795762 1.533173
15.678936 7.853538 1.534188
15.682561 7.921237 1.537133
15.690166 7.991219 1.540496
15.680534 8.052637 1.542193
15.683497 8.120727 1.545153
15.687213 8.189464 1.548216
15.683831 8.254732 1.550605
15.677312 8.318543 1.552709
15.673498 8.383986 1.555107
15.687770 8.459391 1.559328
15.676813 8.521450 1.561070
15.695359 8.599829 1.565779
15.685153 8.662740 1.567650
15.693375 8.736074 1.571390
15.694299 8.805645 1.574430
15.685713 8.870106 1.576543
15.693902 8.944313 1.580371
15.682535 9.007628 1.582259
15.698647 9.087017 1.586950
15.690395 9.152611 1.589209
15.677710 9.215799 1.591045
15.672302 9.283464 1.593646
15.672151 9.354499 1.596811
15.685470 9.433920 1.601381
15.683879 9.504715 1.604464
15.679008 9.573785 1.607240
15.684399 9.649419 1.611100
15.691102 9.726214 1.615129
15.685659 9.795791 1.617941
15.683282 9.867551 1.621099
15.680303 9.939217 1.624226
15.689399 10.018879 1.628639
15.590960 10.029766 1.621902
15.471959 10.026713 1.613011
15.369784 10.033833 1.605857
15.242838 10.024006 1.596096
15.141087 10.029973 1.588954
15.017715 10.020856 1.579524
14.924541 10.031165 1.573253
14.805128 10.023130 1.564198
14.700212 10.024143 1.556656
14.594566 10.023953 1.549019
14.506127 10.034957 1.543195
14.375123 10.015759 1.532822
14.288270 10.026574 1.527137
14.172887 10.016692 1.518386
14.084527 10.025223 1.512512
13.979259 10.021079 1.504807
13.888068 10.026372 1.498601
13.795226 10.029876 1.492203
13.697918 10.029503 1.485307
13.590555 10.021061 1.477300
13.496667 10.021860 1.470739
13.405588 10.024133 1.464468
13.310954 10.023129 1.457793
13.222714 10.026331 1.451802
13.123364 10.020473 1.444575
13.025507 10.015064 1.437491
12.935029 10.014684 1.431203
12.859818 10.025595 1.426593
12.761104 10.017607 1.419360
12.681340 10.023893 1.414219
12.583905 10.015612 1.407090
12.511841 10.026962 1.402783
12.411195 10.014827 1.395256
12.329996 10.017749 1.389895
12.243567 10.015862 1.383930
12.162606 10.017889 1.378568
12.070136 10.009837 1.371883
12.003585 10.022760 1.368131
11.922526 10.023112 1.362715
11.837778 10.019798 1.356860
11.755733 10.018199 1.351299
11.677170 10.019027 1.346122
11.601077 10.021463 1.341216
11.519435 10.018579 1.335653
11.435621 10.013225 1.329820
11.359379 10.013950 1.324851
11.289286 10.019626 1.320587
11.206756 10.013750 1.314853
11.138957 10.020536 1.310833
11.064945 10.021280 1.306069
10.993045 10.023457 1.301542
10.909127 10.014132 1.295575
10.840663 10.018466 1.291426
10.761817 10.012707 1.286025
10.692448 10.015258 1.281741
10.624379 10.018585 1.277601
10.547770 10.013368 1.272418
10.479780 10.015841 1.268260
10.417478 10.023343 1.264781
10.337913 10.013754 1.259190
10.272280 10.017153 1.255279
10.200850 10.014442 1.250647
10.135204 10.016948 1.246709
10.065952 10.015442 1.242314
9.999175 10.015939 1.238210
9.938313 10.021955 1.234828
9.869320 10.019346 1.230422
9.796309 10.012151 1.225498
9.736325 10.017817 1.222189
9.666416 10.012839 1.217621
9.599495 10.010471 1.213412
9.538773 10.014144 1.209974
9.475599 10.014844 1.206213
9.413498 10.016264 1.202576
9.345686 10.011160 1.198194
9.291315 10.020057 1.195524
9.222881 10.013385 1.191032
9.168587 10.021659 1.188353
9.099085 10.012893 1.183689
9.037986 10.012903 1.180101
8.972711 10.007845 1.175953
8.925419 10.022504 1.174152
8.866560 10.023878 1.170824
8.804161 10.020837 1.167014
8.742118 10.017760 1.163236
8.686380 10.021517 1.160284
8.625575 10.019041 1.156643
8.557346 10.007455 1.151986
8.509152 10.018908 1.150014
8.447167 10.013778 1.146168
8.386357 10.009593 1.142464
8.325485 10.004889 1.138735
8.280962 10.019521 1.137234
8.224051 10.018880 1.134025
8.160428 10.009616 1.129873
8.103905 10.008617 1.126687
8.053719 10.015109 1.124372
8.003593 10.021394 1.122058
7.940673 10.011263 1.117937
7.889674 10.015757 1.115478
7.835268 10.015590 1.112528
7.767836 9.998287 1.107706
7.724494 10.011604 1.106306
7.680668 10.024116 1.104837
7.626075 10.022289 1.101811
7.574065 10.023499 1.099146
7.508771 10.006666 1.094534
7.464521 10.017484 1.092973
7.414211 10.019910 1.090520
7.355782 10.010970 1.086856
7.300181 10.005431 1.083592
7.255084 10.013965 1.081875
7.203450 10.013187 1.079176
7.152763 10.013380 1.076606
7.101111 10.011872 1.073878
7.048962 10.009296 1.071061
7.000241 10.011249 1.068752
6.956934 10.020688 1.067264
6.896565 10.005175 1.063143
6.857939 10.020874 1.062362
6.801876 10.010804 1.058870
6.755589 10.014750 1.056886
6.703281 10.009432 1.053947
6.656577 10.012137 1.051876
6.612964 10.019238 1.050287
6.560902 10.013222 1.047344
6.509559 10.007900 1.044499
6.461817 10.007753 1.042217
6.417384 10.012445 1.040459
6.370672 10.013305 1.038322
6.323397 10.012967 1.036083
6.270210 10.002876 1.032858
6.229815 10.012878 1.031728
6.178827 10.005563 1.028834
6.130727 10.002536 1.026403
6.086695 10.005837 1.024642
6.043040 10.009504 1.022937
5.996565 10.008212 1.020745
5.951708 10.009311 1.018816
5.909110 10.013949 1.017265
5.858469 10.004618 1.014316
5.818933 10.013948 1.013279
5.770792 10.008197 1.010733
5.727679 10.010839 1.009055
5.685483 10.014841 1.007531
5.640277 10.013260 1.005464
5.592525 10.006799 1.002927
5.553120 10.014992 1.001876
5.503906 10.005190 0.999044
5.458899 10.002641 0.996956
5.419861 10.010783 0.995951
5.379824 10.016904 0.994760
5.337416 10.018380 0.993124
5.293426 10.016596 0.991182
5.244071 10.004256 0.988216
5.203504 10.008329 0.986889
5.161502 10.009398 0.985282
5.118181 10.007617 0.983412
5.079475 10.014620 0.982421
5.036649 10.013264 0.980626
4.981507 9.986907 0.976404
4.954873 10.017460 0.977761
4.915179 10.021622 0.976553
4.865885 10.005830 0.973419
4.821309 9.999272 0.971203
4.783665 10.006823 0.970373
4.744641 10.011315 0.969261
4.707521 10.019659 0.968535
4.661548 10.008862 0.965975
4.623986 10.015819 0.965145
4.585832 10.021329 0.964189
4.543269 10.016943 0.962296
4.497027 10.004020 0.959601
4.454326 9.998538 0.957637
4.421086 10.014114 0.957704
4.374812 9.999912 0.954937
4.342167 10.016618 0.955137
4.294025 9.997282 0.951915
4.254582 9.997759 0.950597
4.217844 10.004392 0.949878
4.180570 10.009602 0.949036
4.138288 10.002539 0.947046
4.108158 10.024726 0.947837
4.062929 10.009876 0.945139
4.021735 10.004512 0.943354
3.992607 10.029089 0.944404
3.945644 10.008643 0.941228
3.900185 9.991383 0.938370
3.865485 10.001354 0.938084
3.830681 10.010991 0.937778
3.787086 9.997356 0.935306
3.751835 10.005437 0.934880
3.716564 10.013371 0.934452
3.671818 9.995417 0.931622
3.639797 10.011833 0.932009
3.596980 9.998325 0.929624
3.565256 10.015440 0.930099
3.525179 10.008947 0.928393
3.484931 10.001565 0.926619
3.445814 9.997052 0.925125
3.410549 10.003483 0.924657
3.376390 10.013082 0.924493
3.333984 9.997910 0.922055
3.299668 10.006680 0.921838
3.255871 9.986314 0.918951
3.223142 9.999569 0.919171
3.191391 10.015950 0.919688
3.149277 9.999557 0.917208
3.112699 10.000314 0.916315
3.074736 9.996336 0.915001
3.039489 10.000951 0.914485
3.003279 10.002219 0.913676
2.969486 10.011421 0.913602
2.933368 10.012669 0.912813
2.896950 10.012664 0.911922
2.856324 9.997684 0.909680
2.824122 10.011934 0.910110
2.784002 9.997872 0.907978
2.751317 10.010249 0.908259
2.714057 10.005844 0.907029
2.677077 10.002122 0.905873
2.639913 9.997355 0.904634
2.606201 10.005467 0.904572
2.568124 9.996569 0.902984
2.533153 9.999442 0.902472
2.501942 10.017203 0.903313
2.463258 10.004887 0.901452
2.428984 10.010139 0.901186
2.392092 10.004357 0.899939
2.354563 9.995457 0.898423
2.321202 10.004008 0.898487
2.286439 10.006444 0.898012
2.250144 10.001911 0.896923
2.214898 10.001724 0.896236
2.178189 9.994583 0.894936
2.146497 10.010366 0.895700
2.109496 10.001263 0.894248
2.074259 10.000118 0.893518
2.040703 10.006936 0.893511
2.004584 10.000972 0.892374
1.970860 10.006717 0.892292
1.933469 9.993475 0.890528
1.902504 10.013331 0.891724
1.865041 9.998860 0.889873
1.832678 10.011456 0.890442
1.797677 10.009615 0.889737
1.760656 9.995996 0.887997
1.724659 9.987527 0.886726
1.693133 10.004889 0.887759
1.657606 9.998611 0.886703
1.623349 9.999649 0.886308
1.587622 9.991248 0.885086
1.554831 10.001124 0.885495
1.520944 10.004008 0.885293
1.485763 9.998075 0.884323
1.452356 10.003847 0.884397
1.418563 10.006939 0.884245
1.384014 10.004485 0.883613
1.349363 10.000917 0.882894
1.316542 10.010839 0.883375
1.281342 10.002486 0.882254
1.248701 10.013971 0.882893
1.213407 10.003987 0.881649
1.179424 10.004310 0.881324
1.143274 9.985495 0.879324
1.109444 9.986169 0.879050
1.077167 10.001082 0.880040
1.043163 10.000165 0.879647
1.009383 10.001175 0.879433
0.975240 9.998291 0.878887
0.940666 9.990397 0.877911
0.908122 10.004041 0.878838
0.873517 9.994919 0.877774
0.839335 9.989864 0.877078
0.807645 10.015057 0.879047
0.772373 9.995849 0.877129
0.737929 9.985863 0.876031
0.706343 10.015205 0.878392
0.671260 9.995174 0.876433
0.638108 10.003083 0.876934
0.604808 10.009162 0.877284
0.570207 9.992924 0.875688
0.536474 9.990582 0.875321
0.503478 10.002340 0.876198
0.470038 10.006080 0.876383
0.436016 9.996802 0.875437
0.402106 9.988519 0.874589
0.368980 9.999708 0.875455
0.335723 10.009019 0.876167
0.301801 9.998093 0.875117
0.268285 9.999339 0.875142
0.234890 10.005795 0.875634
0.201339 10.006420 0.875624
0.167753 10.004941 0.875441
0.134015 9.991113 0.874186
0.100548 9.994720 0.874468
0.067104 10.005038 0.875346
0.033529 9.996174 0.874556
0.000013 10.005949 0.875406
-0.033489 9.992320 0.874218
-0.067024 9.996951 0.874638
-0.100600 10.002560 0.875154
-0.134060 9.996471 0.874655
-0.167750 10.006357 0.875565
-0.201316 10.006632 0.875643
-0.234984 10.010930 0.876083
-0.268494 10.008125 0.875911
-0.301872 10.001316 0.875399
-0.335343 9.998475 0.875244
-0.368995 10.000845 0.875555
-0.402120 9.989505 0.874675
-0.436081 9.998896 0.875620
-0.469469 9.994514 0.875370
-0.503112 9.995593 0.875607
-0.537243 10.005404 0.876619
-0.570728 10.002535 0.876531
-0.604176 9.999141 0.876406
-0.639458 10.024659 0.878825
-0.670764 9.988193 0.875821
-0.704179 9.984898 0.875734
-0.738133 9.988979 0.876304
-0.773354 10.008898 0.878274
-0.806034 9.995407 0.877322
-0.839862 9.996459 0.877657
-0.872775 9.986741 0.877056
-0.907161 9.993749 0.877933
-0.941444 9.998950 0.878662
-0.976933 10.015931 0.880438
-1.008816 9.995820 0.878962
-1.042549 9.994539 0.879152
-1.077586 10.005217 0.880404
-1.109926 9.990746 0.879453
-1.144369 9.995291 0.880186
-1.179693 10.006818 0.881544
-1.210589 9.980975 0.879620
-1.245534 9.988789 0.880672
-1.282746 10.013661 0.883239
-1.313908 9.991022 0.881626
-1.347627 9.988251 0.881775
-1.382982 9.997223 0.882972
-1.414375 9.977586 0.881651
-1.451121 9.995527 0.883662
-1.485339 9.995404 0.884086
-1.518230 9.986331 0.883729
-1.552259 9.984755 0.884045
-1.588626 9.997742 0.885661
-1.622827 9.996605 0.886038
-1.657191 9.996270 0.886495
-1.692899 10.003672 0.887650
-1.726174 9.996456 0.887519
-1.760202 9.993574 0.887782
-1.795226 9.996119 0.888537
-1.830216 9.998158 0.889259
-1.862553 9.985665 0.888698
-1.898594 9.992900 0.889904
-1.934511 9.999003 0.891020
-1.967886 9.991755 0.890957
-2.001788 9.987163 0.891141
-2.039459 10.000972 0.892978
-2.075953 10.008419 0.894260
-2.110129 10.004394 0.894527
-2.143529 9.996653 0.894473
-2.181764 10.011115 0.896416
-2.213896 9.997325 0.895841
-2.249974 10.001275 0.896866
-2.283265 9.992676 0.896776
-2.320868 10.002690 0.898368
-2.352820 9.988175 0.897768
-2.390298 9.996974 0.899274
-2.425393 9.995458 0.899864
-2.459929 9.991482 0.900244
-2.496958 9.997363 0.901523
-2.529315 9.984404 0.901114
-2.568070 9.996469 0.902975
-2.601578 9.987828 0.902977
-2.637242 9.987346 0.903728
-2.675803 9.997465 0.905450
-2.710263 9.991963 0.905770
-2.747960 9.998139 0.907160
-2.784593 10.000098 0.908180
-2.820498 9.999187 0.908951
-2.855457 9.994747 0.909412
-2.893562 10.001053 0.910863
-2.928559 9.996353 0.911325
-2.966528 10.001547 0.912700
-3.001025 9.994809 0.912998
-3.038817 9.998833 0.914291
-3.076116 10.000916 0.915419
-3.113557 10.003165 0.916576
-3.143412 9.981027 0.915508
-3.180289 9.981199 0.916496
-3.215459 9.975824 0.916988
-3.261443 10.003496 0.920531
-3.297003 9.998687 0.921101
-3.334489 9.999513 0.922202
-3.369326 9.992220 0.922566
-3.406814 9.992614 0.923652
-3.439858 9.979859 0.923533
-3.483363 9.997150 0.926209
-3.521438 9.998409 0.927414
-3.558695 9.997090 0.928394
-3.597780 10.000633 0.929838
-3.633494 9.994576 0.930402
-3.672316 9.996855 0.931755
-3.715204 10.009788 0.934116
-3.746008 9.989977 0.933434
-3.783641 9.988342 0.934462
-3.824800 9.995702 0.936345
-3.858305 9.982854 0.936348
-3.902488 9.997360 0.938930
-3.939243 9.992483 0.939707
-3.974950 9.984811 0.940234
-4.012474 9.981550 0.941188
-4.053236 9.986071 0.942891
-4.098245 10.000612 0.945556
-4.136981 9.999454 0.946752
-4.175454 9.997427 0.947881
-4.211242 9.988808 0.948397
-4.252229 9.992304 0.950077
-4.291069 9.990473 0.951266
-4.331329 9.991688 0.952759
-4.370951 9.991159 0.954100
-4.407746 9.983972 0.954820
-4.448645 9.985857 0.956421
-4.493050 9.995243 0.958758
-4.528021 9.983397 0.959072
-4.569931 9.986651 0.960851
-4.613575 9.993338 0.962978
-4.652744 9.990029 0.964157
-4.687524 9.977164 0.964426
-4.732337 9.985422 0.966753
-4.775415 9.989633 0.968705
-4.818538 9.993593 0.970650
-4.856570 9.986743 0.971561
-4.901006 9.992790 0.973743
-4.941765 9.991025 0.975180
-4.982333 9.988630 0.976571
-5.036353 10.012741 0.980574
-5.069961 9.995928 0.980586
-5.107014 9.985847 0.981272
-5.143852 9.975235 0.981918
-5.194228 9.990552 0.985135
-5.229622 9.976757 0.985498
-5.283917 9.998668 0.989406
-5.321795 9.989125 0.990222
-5.362764 9.985204 0.991610
-5.409547 9.991796 0.994061
-5.450857 9.987968 0.995493
-5.489285 9.978673 0.996395
-5.540683 9.992624 0.999637
-5.581622 9.987353 1.000976
-5.625619 9.987299 1.002856
-5.678957 10.003407 1.006379
-5.718058 9.994085 1.007365
-5.758269 9.986538 1.008544
-5.809611 9.997966 1.011660
-5.850581 9.991207 1.012955
-5.892871 9.986490 1.014475
-5.938088 9.986466 1.016489
-5.986991 9.992292 1.019119
-6.032803 9.992608 1.021209
-6.080298 9.995382 1.023570
-6.119565 9.984384 1.024539
-6.169320 9.990227 1.027255
-6.217925 9.993827 1.029763
-6.257691 9.982965 1.030800
-6.307422 9.987730 1.033470
-6.356513 9.991109 1.036019
-6.399006 9.983830 1.037483
-6.450760 9.990686 1.040437
-6.504103 9.999570 1.043628
-6.541884 9.984255 1.044313
-6.594720 9.991653 1.047393
-6.642748 9.991395 1.049695
-6.691956 9.992579 1.052171
-6.736683 9.986781 1.053933
-6.794219 9.999593 1.057683
-6.833678 9.985481 1.058608
-6.878767 9.979412 1.060403
-6.939318 9.995371 1.064565
-6.989146 9.995437 1.067062
-7.033395 9.987249 1.068700
-7.081626 9.984457 1.070935
-7.125087 9.974691 1.072444
-7.185417 9.988175 1.076478
-7.234377 9.985438 1.078791
-7.289334 9.990620 1.081985
-7.343465 9.994263 1.085040
-7.387887 9.984389 1.086652
-7.441319 9.986401 1.089580
-7.493052 9.985774 1.092246
-7.549125 9.990549 1.095531
-7.603756 9.993013 1.098591
-7.648063 9.981618 1.100151
-7.713298 9.997149 1.104707
-7.759964 9.988211 1.106588
-7.814311 9.988854 1.109556
-7.872286 9.993737 1.113024
-7.924856 9.991376 1.115714
-7.980376 9.992377 1.118807
-8.030017 9.985689 1.121066
-8.087311 9.988177 1.124384
-8.140274 9.984949 1.127086
-8.197093 9.986092 1.130311
-8.247707 9.979338 1.132670
-8.306779 9.982465 1.136180
-8.365829 9.985146 1.139671
-8.422924 9.985092 1.142882
-8.490484 9.996981 1.147495
-8.536447 9.983068 1.149176
-8.595106 9.983704 1.152560
-8.661073 9.992373 1.156907
-8.713052 9.984506 1.159372
-8.783984 9.997925 1.164343
-8.829091 9.981571 1.165880
-8.886201 9.978518 1.168997
-8.952981 9.985892 1.173371
-9.014811 9.987282 1.177079
-9.073710 9.985023 1.180392
-9.141091 9.991658 1.184792
-9.202439 9.991244 1.188395
-9.257704 9.983863 1.191203
-9.326760 9.990939 1.195771
-9.378079 9.978631 1.198055
-9.443969 9.981466 1.202190
-9.515845 9.990127 1.207069
-9.574357 9.984309 1.210238
-9.636389 9.981789 1.213842
-9.701838 9.982387 1.217863
-9.772174 9.987536 1.222482
-9.840634 9.990277 1.226849
-9.894408 9.977733 1.229376
-9.962745 9.979500 1.233702
-10.029448 9.979174 1.237812
-10.110423 9.992509 1.243664
-10.161420 9.975784 1.245816
-10.241174 9.986872 1.251481
-10.302547 9.979550 1.254885
-10.372754 9.980364 1.259354
-10.435888 9.973945 1.262952
-10.516678 9.983905 1.268671
-10.586455 9.982878 1.273044
-10.663454 9.988154 1.278268
-10.735974 9.988717 1.282940
-10.801677 9.982490 1.286785
-10.874702 9.982585 1.291489
-10.949300 9.983624 1.296366
-11.026615 9.986619 1.301548
-11.098948 9.984597 1.306127
-11.177197 9.987391 1.311388
-11.242581 9.978227 1.315127
-11.317515 9.977098 1.319972
-11.399705 9.981829 1.325647
-11.476089 9.980932 1.330630
-11.559157 9.985306 1.336373
-11.630618 9.979138 1.340758
-11.711644 9.980680 1.346234
-11.788349 9.978014 1.351198
-11.862427 9.972641 1.355849
-11.955870 9.982973 1.362696
-12.030162 9.976741 1.367343
-12.123517 9.985747 1.374141
-12.201951 9.981873 1.379229
-12.278813 9.976219 1.384129
-12.381701 9.991082 1.391943
-12.455021 9.981482 1.396415
-12.538920 9.979863 1.402063
-12.621382 9.976554 1.407535
-12.694083 9.965050 1.411909
-12.793433 9.973895 1.419232
-12.882872 9.974357 1.425435
-12.979199 9.979514 1.432383
-13.073822 9.982698 1.439124
-13.165479 9.982985 1.445521
-13.250938 9.977991 1.451223
-13.341084 9.975954 1.457424
-13.433500 9.975012 1.463858
-13.524831 9.972654 1.470159
-13.636267 9.984418 1.478624
-13.717422 9.973364 1.483790
-13.805470 9.966796 1.489691
-13.923285 9.981010 1.498785
-14.025314 9.983131 1.506156
-14.109919 9.972245 1.511643
-14.117725 9.906953 1.508912
-14.118831 9.837245 1.505496
-14.121387 9.768859 1.502268
-14.117008 9.696009 1.498335
-14.111774 9.622939 1.494347
-14.113848 9.555186 1.491166
-14.119322 9.490011 1.488374
