# This PCD file was generated using the MATLAB® pcwrite function
# from Computer Vision Toolbox®.
# .PCD v.7 - Point Cloud Data file format
VERSION .7
FIELDS x y z
SIZE 4 4 4
TYPE F F F
COUNT 1 1 1
WIDTH 1617
HEIGHT 1
VIEWPOINT 0 0 0 1 0 0 0
POINTS 1617
DATA ascii
-14.093906 -5.420124 -0.263575
-14.078895 -5.468606 -0.263635
-14.092232 -5.528235 -0.264231
-14.089823 -5.581872 -0.264535
-14.081576 -5.633301 -0.264733
-14.096395 -5.694129 -0.265369
-14.097563 -5.749655 -0.265752
-14.088461 -5.801112 -0.265946
-14.091290 -5.857609 -0.266369
-14.078523 -5.907739 -0.266500
-14.102485 -5.973482 -0.267332
-14.078546 -6.019093 -0.267259
-14.079021 -6.075209 -0.267653
-14.089512 -6.135853 -0.268242
-14.094402 -6.194283 -0.268729
-14.084497 -6.246357 -0.268938
-14.073362 -6.297969 -0.269127
-14.099285 -6.366395 -0.270029
-14.085409 -6.417070 -0.270174
-14.089801 -6.476204 -0.270673
-14.091899 -6.534486 -0.271133
-14.078074 -6.585516 -0.271290
-14.104926 -6.655807 -0.272236
-14.088339 -6.705826 -0.272349
-14.076302 -6.758076 -0.272552
-14.078886 -6.817495 -0.273044
-14.081233 -6.877009 -0.273535
-14.091461 -6.940616 -0.274184
-14.071999 -6.989754 -0.274260
-14.092394 -7.058889 -0.275117
-14.092529 -7.118162 -0.275584
-14.089520 -7.176034 -0.275994
-14.093693 -7.237772 -0.276549
-14.084871 -7.293024 -0.276855
-14.086981 -7.354115 -0.277379
-14.083008 -7.412232 -0.277789
-14.095644 -7.479342 -0.278531
-14.069271 -7.525909 -0.278507
-14.088618 -7.597121 -0.279393
-14.079670 -7.653339 -0.279722
-14.082700 -7.716266 -0.280295
-14.084439 -7.778732 -0.280847
-14.083480 -7.839939 -0.281351
-14.096269 -7.909082 -0.282134
-14.091351 -7.968560 -0.282569
-14.104044 -8.038266 -0.283362
-14.088482 -8.092096 -0.283593
-14.081785 -8.151162 -0.284007
-14.084641 -8.215983 -0.284619
-14.073154 -8.272647 -0.284945
-14.088431 -8.345311 -0.285820
-14.086094 -8.407854 -0.286342
-14.100691 -8.480816 -0.287216
-14.088893 -8.538176 -0.287557
-14.087685 -8.602156 -0.288119
-14.092250 -8.669942 -0.288805
-14.084870 -8.730636 -0.289252
-14.096254 -8.803250 -0.290091
-14.081282 -8.859662 -0.290392
-14.087607 -8.929713 -0.291139
-14.096038 -9.001449 -0.291935
-14.086415 -9.061935 -0.292363
-14.083863 -9.127201 -0.292944
-14.082901 -9.193771 -0.293563
-14.088515 -9.264953 -0.294326
-14.078930 -9.326417 -0.294777
-14.088778 -9.401059 -0.295642
-14.086982 -9.468274 -0.296269
-14.084279 -9.535168 -0.296883
-14.084614 -9.604419 -0.297567
-14.082293 -9.672165 -0.298201
-14.092402 -9.748808 -0.299106
-14.081737 -9.811399 -0.299576
-13.988269 -9.816108 -0.298286
-13.902535 -9.825676 -0.297159
-13.807539 -9.828120 -0.295831
-13.688965 -9.813036 -0.293994
-13.617497 -9.831090 -0.293165
-13.513700 -9.825246 -0.291638
-13.410411 -9.819047 -0.290118
-13.321350 -9.822616 -0.288902
-13.225965 -9.820906 -0.287546
-13.131304 -9.819089 -0.286202
-13.048720 -9.825721 -0.285118
-12.955098 -9.823461 -0.283791
-12.862194 -9.821108 -0.282475
-12.778936 -9.825535 -0.281369
-12.681616 -9.818538 -0.279949
-12.606400 -9.828082 -0.279015
-12.510759 -9.821137 -0.277625
-12.413144 -9.811953 -0.276187
-12.338670 -9.820480 -0.275261
-12.256572 -9.822444 -0.274163
-12.165895 -9.816944 -0.272869
-12.089750 -9.822610 -0.271899
-12.002810 -9.818965 -0.270682
-11.926795 -9.823713 -0.269709
-11.830358 -9.811041 -0.268271
-11.761495 -9.820673 -0.267454
-11.690888 -9.828430 -0.266597
-11.605027 -9.822845 -0.265388
-11.526519 -9.822916 -0.264345
-11.434059 -9.810490 -0.262977
-11.360593 -9.813777 -0.262043
-11.283403 -9.813352 -0.261020
-11.212543 -9.817945 -0.260141
-11.142258 -9.822598 -0.259272
-11.063521 -9.819304 -0.258205
-10.998635 -9.827837 -0.257458
-10.921155 -9.824656 -0.256414
-10.838762 -9.816484 -0.255251
-10.762967 -9.813725 -0.254239
-10.694219 -9.816906 -0.253392
-10.620599 -9.815145 -0.252426
-10.553818 -9.819239 -0.251619
-10.477713 -9.814176 -0.250588
-10.402617 -9.809521 -0.249577
-10.335623 -9.812022 -0.248758
-10.273985 -9.819208 -0.248065
-10.201710 -9.815790 -0.247113
-10.131188 -9.813563 -0.246201
-10.057360 -9.807623 -0.245204
-10.001901 -9.819180 -0.244654
-9.927670 -9.811888 -0.243641
-9.870771 -9.821292 -0.243052
-9.800159 -9.816641 -0.242122
-9.734603 -9.816582 -0.241314
-9.670311 -9.817365 -0.240535
-9.603203 -9.814841 -0.239683
-9.547114 -9.823188 -0.239104
-9.482150 -9.822021 -0.238300
-9.409420 -9.812310 -0.237298
-9.350315 -9.816347 -0.236636
-9.277472 -9.805493 -0.235623
-9.228885 -9.819882 -0.235224
-9.163559 -9.816116 -0.234397
-9.104795 -9.818960 -0.233734
-9.041978 -9.817028 -0.232965
-8.971585 -9.806379 -0.231997
-8.916021 -9.811497 -0.231410
-8.860262 -9.816062 -0.230816
-8.801192 -9.816592 -0.230133
-8.734415 -9.808075 -0.229245
-8.679561 -9.812523 -0.228668
-8.617120 -9.808000 -0.227888
-8.558667 -9.807592 -0.227210
-8.503708 -9.810820 -0.226623
-8.453894 -9.819676 -0.226172
-8.387609 -9.809007 -0.225277
-8.338968 -9.818582 -0.224854
-8.283318 -9.819593 -0.224240
-8.227288 -9.819788 -0.223613
-8.171876 -9.820348 -0.223001
-8.103175 -9.804461 -0.222022
-8.060589 -9.819796 -0.221756
-8.003413 -9.817074 -0.221087
-7.954205 -9.823786 -0.220636
-7.887368 -9.808299 -0.219693
-7.836389 -9.812089 -0.219188
-7.781583 -9.810742 -0.218574
-7.725065 -9.806843 -0.217909
-7.684037 -9.822329 -0.217679
-7.616414 -9.803439 -0.216694
-7.568703 -9.809740 -0.216271
-7.519476 -9.813796 -0.215803
-7.463763 -9.809032 -0.215147
-7.419227 -9.818641 -0.214811
-7.357634 -9.805305 -0.213978
-7.314714 -9.816494 -0.213686
-7.260837 -9.812688 -0.213072
-7.211093 -9.814108 -0.212577
-7.169426 -9.826277 -0.212318
-7.101365 -9.801846 -0.211275
-7.061444 -9.815846 -0.211065
-7.008703 -9.811760 -0.210471
-6.957046 -9.808809 -0.209906
-6.916586 -9.821383 -0.209678
-6.855885 -9.804855 -0.208833
-6.813945 -9.814783 -0.208557
-6.761691 -9.809563 -0.207963
-6.713810 -9.810328 -0.207501
-6.664079 -9.808056 -0.206979
-6.616417 -9.808492 -0.206519
-6.571006 -9.811974 -0.206127
-6.529574 -9.821169 -0.205859
-6.485235 -9.825773 -0.205499
-6.433015 -9.818098 -0.204886
-6.375460 -9.801790 -0.204098
-6.332488 -9.807510 -0.203774
-6.285149 -9.806189 -0.203308
-6.242809 -9.812390 -0.203001
-6.192867 -9.806334 -0.202445
-6.152914 -9.815812 -0.202214
-6.105644 -9.813362 -0.201741
-6.066532 -9.823778 -0.201535
-6.010154 -9.805874 -0.200754
-5.965046 -9.805920 -0.200344
-5.920781 -9.807058 -0.199960
-5.881003 -9.815398 -0.199727
-5.833018 -9.809762 -0.199214
-5.790826 -9.813557 -0.198895
-5.747003 -9.814324 -0.198519
-5.697292 -9.804673 -0.197936
-5.651011 -9.800522 -0.197469
-5.611849 -9.808454 -0.197249
-5.567733 -9.807487 -0.196853
-5.518184 -9.796568 -0.196261
-5.486748 -9.817593 -0.196313
-5.443155 -9.816733 -0.195929
-5.390659 -9.799385 -0.195221
-5.355265 -9.812809 -0.195130
-5.309494 -9.806993 -0.194659
-5.272439 -9.817021 -0.194506
-5.220712 -9.799389 -0.193809
-5.185642 -9.812703 -0.193727
-5.138496 -9.802913 -0.193193
-5.113047 -9.834409 -0.193475
-5.063765 -9.819925 -0.192855
-5.011302 -9.798698 -0.192107
-4.975481 -9.809650 -0.191993
-4.931456 -9.804195 -0.191562
-4.894838 -9.813219 -0.191416
-4.847360 -9.800162 -0.190844
-4.809721 -9.806666 -0.190655
-4.769723 -9.808156 -0.190372
-4.727922 -9.805657 -0.190015
-4.685247 -9.801012 -0.189619
-4.652179 -9.816284 -0.189612
-4.608962 -9.809948 -0.189190
-4.572456 -9.817641 -0.189042
-4.529210 -9.810596 -0.188613
-4.491436 -9.815117 -0.188409
-4.448212 -9.807433 -0.187974
-4.408628 -9.807437 -0.187690
-4.364422 -9.796803 -0.187205
-4.332611 -9.813782 -0.187251
-4.295307 -9.818252 -0.187060
-4.249180 -9.802184 -0.186482
-4.209854 -9.801389 -0.186197
-4.168045 -9.794480 -0.185799
-4.129056 -9.793866 -0.185524
-4.095559 -9.806132 -0.185495
-4.056144 -9.804063 -0.185198
-4.018915 -9.807029 -0.184998
-3.984570 -9.816898 -0.184931
-3.941589 -9.805216 -0.184461
-3.904282 -9.807300 -0.184253
-3.870505 -9.818120 -0.184212
-3.830312 -9.812460 -0.183864
-3.786959 -9.798257 -0.183358
-3.753019 -9.808110 -0.183306
-3.718014 -9.815096 -0.183203
-3.677109 -9.806236 -0.182806
-3.636626 -9.798076 -0.182426
-3.600055 -9.800144 -0.182239
-3.571705 -9.824616 -0.182470
-3.531783 -9.817184 -0.182111
-3.493097 -9.812813 -0.181812
-3.452565 -9.802858 -0.181412
-3.420775 -9.817525 -0.181470
-3.376170 -9.795084 -0.180845
-3.339366 -9.794779 -0.180631
-3.302250 -9.793295 -0.180399
-3.269786 -9.805482 -0.180420
-3.235067 -9.810857 -0.180319
-3.193891 -9.796300 -0.179853
-3.161872 -9.809574 -0.179901
-3.121277 -9.795992 -0.179459
-3.090283 -9.812331 -0.179568
-3.053611 -9.810571 -0.179347
-3.017227 -9.809461 -0.179141
-2.978130 -9.799150 -0.178769
-2.941669 -9.797127 -0.178552
-2.911091 -9.814643 -0.178692
-2.871325 -9.800989 -0.178267
-2.840995 -9.819366 -0.178427
-2.797149 -9.790657 -0.177734
-2.763506 -9.797139 -0.177682
-2.730597 -9.806186 -0.177679
-2.691918 -9.794236 -0.177298
-2.659012 -9.803013 -0.177295
-2.621692 -9.795296 -0.176995
-2.586363 -9.794665 -0.176826
-2.550404 -9.791362 -0.176611
-2.515875 -9.793297 -0.176493
-2.481838 -9.796989 -0.176409
-2.450591 -9.811718 -0.176525
-2.417459 -9.818978 -0.176509
-2.376434 -9.793689 -0.175910
-2.344577 -9.805751 -0.175984
-2.312606 -9.817461 -0.176054
-2.273268 -9.797538 -0.175559
-2.239669 -9.801879 -0.175502
-2.204177 -9.797705 -0.175294
-2.171964 -9.807976 -0.175346
-2.137386 -9.807485 -0.175208
-2.103456 -9.809766 -0.175122
-2.068923 -9.809032 -0.174984
-2.032996 -9.801319 -0.174724
-2.000416 -9.809520 -0.174750
-1.963591 -9.796593 -0.174401
-1.930433 -9.801589 -0.174374
-1.895544 -9.797593 -0.174189
-1.863475 -9.808058 -0.174263
-1.825884 -9.789073 -0.173816
-1.794359 -9.802274 -0.173942
-1.759400 -9.796634 -0.173736
-1.727284 -9.806679 -0.173811
-1.691565 -9.796030 -0.173521
-1.660059 -9.809613 -0.173662
-1.625306 -9.803942 -0.173464
-1.590907 -9.799975 -0.173298
-1.557806 -9.803782 -0.173272
-1.522545 -9.793628 -0.173002
-1.490683 -9.805136 -0.173116
-1.458390 -9.814056 -0.173186
-1.423576 -9.805788 -0.172955
-1.389334 -9.800936 -0.172786
-1.354845 -9.793829 -0.172580
-1.321130 -9.791862 -0.172466
-1.288999 -9.801607 -0.172561
-1.255196 -9.798597 -0.172432
-1.221259 -9.794109 -0.172280
-1.188968 -9.802712 -0.172361
-1.154672 -9.794579 -0.172149
-1.123459 -9.812651 -0.172399
-1.090169 -9.812913 -0.172339
-1.056205 -9.806695 -0.172166
-1.023977 -9.816495 -0.172277
-0.989980 -9.809180 -0.172089
-0.956233 -9.803702 -0.171936
-0.920968 -9.781475 -0.171491
-0.889830 -9.802823 -0.171812
-0.856779 -9.803699 -0.171776
-0.823559 -9.802415 -0.171704
-0.790663 -9.804795 -0.171699
-0.757082 -9.798300 -0.171539
-0.724627 -9.806202 -0.171634
-0.690958 -9.797427 -0.171439
-0.657527 -9.791086 -0.171289
-0.624400 -9.788589 -0.171207
-0.591628 -9.791478 -0.171222
-0.559501 -9.805765 -0.171438
-0.525870 -9.793599 -0.171194
-0.493398 -9.802608 -0.171322
-0.460689 -9.807598 -0.171381
-0.426787 -9.785804 -0.170974
-0.394913 -9.810479 -0.171381
-0.361743 -9.804304 -0.171251
-0.328212 -9.785867 -0.170909
-0.295839 -9.801436 -0.171162
-0.262794 -9.795635 -0.171045
-0.229745 -9.787763 -0.170893
-0.197359 -9.809928 -0.171267
-0.163997 -9.782484 -0.170778
-0.131492 -9.804968 -0.171161
-0.098540 -9.797692 -0.171028
-0.065705 -9.800213 -0.171067
-0.032876 -9.809432 -0.171225
0.000013 -9.800243 -0.171064
0.032911 -9.811989 -0.171270
0.065631 -9.785366 -0.170808
0.098494 -9.790507 -0.170902
0.131438 -9.799042 -0.171058
0.164206 -9.793440 -0.170969
0.197367 -9.809049 -0.171252
0.230031 -9.798831 -0.171086
0.262743 -9.792780 -0.170995
0.296048 -9.807513 -0.171269
0.328807 -9.802815 -0.171205
0.361214 -9.789255 -0.170988
0.394245 -9.793249 -0.171080
0.428139 -9.816197 -0.171505
0.459961 -9.791547 -0.171100
0.493295 -9.800027 -0.171276
0.525999 -9.795514 -0.171227
0.559347 -9.802605 -0.171383
0.592237 -9.801126 -0.171391
0.625760 -9.809506 -0.171573
0.658667 -9.807670 -0.171579
0.690896 -9.796178 -0.171417
0.724029 -9.797767 -0.171487
0.756616 -9.791924 -0.171428
0.789083 -9.784887 -0.171350
0.822613 -9.790845 -0.171502
0.856662 -9.802062 -0.171748
0.889537 -9.799302 -0.171750
0.923854 -9.811845 -0.172024
0.956218 -9.803275 -0.171929
0.989039 -9.799602 -0.171921
1.022893 -9.805852 -0.172090
1.054802 -9.793424 -0.171933
1.088493 -9.797586 -0.172069
1.121553 -9.795774 -0.172103
1.154723 -9.794785 -0.172152
1.189895 -9.810141 -0.172491
1.220666 -9.789139 -0.172193
1.255629 -9.801769 -0.172488
1.289360 -9.804150 -0.172605
1.320582 -9.787601 -0.172391
1.355574 -9.798903 -0.172669
1.389820 -9.804179 -0.172843
1.421110 -9.788623 -0.172652
1.454250 -9.786012 -0.172691
1.489028 -9.794075 -0.172920
1.522492 -9.793112 -0.172993
1.556337 -9.794369 -0.173106
1.591143 -9.801268 -0.173321
1.625188 -9.803069 -0.173448
1.659865 -9.808310 -0.173639
1.690668 -9.790679 -0.173426
1.728813 -9.815211 -0.173962
1.759504 -9.797063 -0.173744
1.793878 -9.799500 -0.173893
1.826823 -9.793962 -0.173902
1.861327 -9.796612 -0.174059
1.895194 -9.795646 -0.174154
1.930225 -9.800398 -0.174353
1.965603 -9.806494 -0.174577
1.997172 -9.793475 -0.174464
2.031156 -9.792316 -0.174564
2.064969 -9.790155 -0.174647
2.101478 -9.800415 -0.174955
2.133166 -9.787995 -0.174860
2.169093 -9.794884 -0.175112
2.202361 -9.789513 -0.175147
2.237240 -9.791128 -0.175309
2.275028 -9.805005 -0.175693
2.306523 -9.791522 -0.175589
2.343598 -9.801542 -0.175909
2.378173 -9.800741 -0.176037
2.412465 -9.798584 -0.176142
2.446026 -9.793327 -0.176194
2.483299 -9.802646 -0.176511
2.516370 -9.795114 -0.176526
2.550507 -9.791650 -0.176617
2.590693 -9.810960 -0.177121
2.625032 -9.807672 -0.177219
2.657267 -9.796476 -0.177177
2.690902 -9.790440 -0.177230
2.729952 -9.803771 -0.177636
2.759262 -9.781995 -0.177408
2.797015 -9.790089 -0.177724
2.834534 -9.796937 -0.178020
2.869225 -9.793725 -0.178135
2.901386 -9.781826 -0.178095
2.943898 -9.804455 -0.178685
2.976038 -9.792172 -0.178642
3.014187 -9.799484 -0.178959
3.047161 -9.789758 -0.178967
3.083230 -9.789846 -0.179157
3.120672 -9.794002 -0.179423
3.159858 -9.803236 -0.179785
3.194257 -9.797336 -0.179873
3.230728 -9.797610 -0.180075
3.265092 -9.791320 -0.180160
3.307348 -9.808329 -0.180676
3.339649 -9.795527 -0.180645
3.372917 -9.785561 -0.180669
3.408804 -9.783087 -0.180833
3.448489 -9.791202 -0.181196
3.486234 -9.793453 -0.181453
3.520200 -9.784906 -0.181512
3.563109 -9.800890 -0.182030
3.600618 -9.801597 -0.182266
3.639486 -9.805702 -0.182568
3.674270 -9.798587 -0.182664
3.710547 -9.795305 -0.182834
3.743968 -9.784378 -0.182863
3.785461 -9.794304 -0.183285
3.824759 -9.798159 -0.183596
3.858801 -9.788354 -0.183653
3.896848 -9.788550 -0.183901
3.936116 -9.791527 -0.184204
3.973377 -9.789247 -0.184411
4.015475 -9.798560 -0.184839
4.045570 -9.778433 -0.184714
4.085505 -9.781987 -0.185039
4.130128 -9.796337 -0.185571
4.164159 -9.785275 -0.185625
4.205110 -9.790272 -0.185986
4.243447 -9.788887 -0.186229
4.282373 -9.788617 -0.186496
4.329314 -9.806244 -0.187107
4.364191 -9.796214 -0.187194
4.401172 -9.790782 -0.187371
4.441796 -9.793218 -0.187702
4.481052 -9.792356 -0.187972
4.516056 -9.782036 -0.188064
4.552956 -9.775704 -0.188234
4.598997 -9.788671 -0.188780
4.640369 -9.791297 -0.189130
4.675578 -9.780717 -0.189227
4.718387 -9.785815 -0.189631
4.767438 -9.803392 -0.190280
4.805990 -9.798993 -0.190506
4.843040 -9.791363 -0.190672
4.881056 -9.785524 -0.190876
4.921877 -9.785087 -0.191189
4.970576 -9.799916 -0.191803
5.006753 -9.789741 -0.191931
5.049395 -9.791994 -0.192306
5.094031 -9.797771 -0.192754
5.134754 -9.795712 -0.193051
5.170634 -9.784240 -0.193166
5.217639 -9.793559 -0.193694
5.252797 -9.780387 -0.193781
5.291523 -9.773736 -0.193999
5.341326 -9.787207 -0.194621
5.385573 -9.790079 -0.195036
5.431816 -9.796222 -0.195520
5.469794 -9.787195 -0.195705
5.517359 -9.795042 -0.196231
5.561212 -9.795939 -0.196621
5.603186 -9.793251 -0.196943
5.643256 -9.787012 -0.197197
5.691046 -9.793864 -0.197719
5.729568 -9.784491 -0.197916
5.778832 -9.793171 -0.198482
5.823413 -9.793550 -0.198885
5.860252 -9.780706 -0.199022
5.906438 -9.783242 -0.199475
5.944973 -9.772864 -0.199669
6.009065 -9.804038 -0.200716
6.051603 -9.799546 -0.201039
6.096303 -9.798292 -0.201431
6.145302 -9.803611 -0.201963
6.187503 -9.797782 -0.202269
6.237906 -9.804625 -0.202841
6.274744 -9.789897 -0.202970
6.319732 -9.787698 -0.203363
6.372474 -9.797142 -0.204002
6.411702 -9.785514 -0.204206
6.466639 -9.797542 -0.204909
6.504160 -9.782887 -0.205057
6.554579 -9.787388 -0.205611
6.596277 -9.778580 -0.205889
6.657958 -9.798989 -0.206788
6.698805 -9.788346 -0.207036
6.743823 -9.783585 -0.207412
6.789990 -9.780224 -0.207823
6.838040 -9.779280 -0.208288
6.892713 -9.787428 -0.208953
6.936825 -9.780245 -0.209295
6.992223 -9.788634 -0.209975
7.047701 -9.796687 -0.210654
7.090618 -9.786957 -0.210954
7.142467 -9.789273 -0.211519
7.187042 -9.781322 -0.211867
7.239744 -9.784127 -0.212452
7.286348 -9.778373 -0.212857
7.340127 -9.781920 -0.213468
7.394026 -9.785236 -0.214081
7.452951 -9.794768 -0.214835
7.496697 -9.784014 -0.215149
7.553763 -9.790323 -0.215843
7.595433 -9.776381 -0.216096
7.654562 -9.784598 -0.216844
7.716514 -9.795934 -0.217667
7.768485 -9.794176 -0.218206
7.809589 -9.778479 -0.218438
7.869513 -9.786042 -0.219195
7.917205 -9.778036 -0.219609
7.965874 -9.770976 -0.220049
8.036999 -9.791004 -0.221106
8.082363 -9.779226 -0.221451
8.139705 -9.781633 -0.222122
8.198123 -9.784924 -0.222820
8.257398 -9.788814 -0.223537
8.309697 -9.784063 -0.224064
8.363576 -9.780848 -0.224631
8.425290 -9.786399 -0.225406
8.470395 -9.772333 -0.225735
8.536335 -9.781949 -0.226617
8.596073 -9.783992 -0.227331
8.662130 -9.792765 -0.228208
8.710231 -9.780866 -0.228610
8.764000 -9.775057 -0.229160
8.832067 -9.784773 -0.230080
8.893351 -9.786497 -0.230821
8.965204 -9.799353 -0.231832
9.006565 -9.778528 -0.232052
9.078939 -9.791024 -0.233070
9.135291 -9.785784 -0.233673
9.203772 -9.793109 -0.234583
9.259001 -9.785919 -0.235153
9.325139 -9.789864 -0.235998
9.379342 -9.780893 -0.236539
9.451003 -9.789706 -0.237517
9.512378 -9.787395 -0.238233
9.575072 -9.786038 -0.238980
9.647368 -9.794021 -0.239964
9.700514 -9.782154 -0.240468
9.771782 -9.788164 -0.241420
9.827260 -9.777947 -0.241980
9.887405 -9.772041 -0.242652
9.959420 -9.777423 -0.243614
10.043450 -9.794006 -0.244865
10.099640 -9.782951 -0.245434
10.170858 -9.786055 -0.246366
10.241166 -9.787789 -0.247272
10.310126 -9.787765 -0.248144
10.373178 -9.781709 -0.248870
10.438280 -9.777188 -0.249644
10.521701 -9.789305 -0.250853
10.586006 -9.783123 -0.251603
10.647758 -9.774206 -0.252290
10.737025 -9.790018 -0.253626
10.802753 -9.783820 -0.254402
10.871144 -9.779613 -0.255239
10.953641 -9.787580 -0.256404
11.032845 -9.792026 -0.257488
11.099157 -9.784550 -0.258269
11.173178 -9.783424 -0.259227
11.248799 -9.783203 -0.260219
11.318778 -9.777603 -0.261078
11.387313 -9.770329 -0.261901
11.483427 -9.786140 -0.263356
11.559556 -9.784304 -0.264348
11.639520 -9.785192 -0.265425
11.714087 -9.781034 -0.266376
11.797569 -9.783795 -0.267527
11.871304 -9.777954 -0.268454
11.948425 -9.774423 -0.269455
12.041739 -9.783548 -0.270818
12.122667 -9.782009 -0.271899
12.218578 -9.791943 -0.273313
12.275380 -9.770055 -0.273849
12.383333 -9.788336 -0.275524
12.464356 -9.784657 -0.276595
12.551632 -9.785332 -0.277802
12.634347 -9.781886 -0.278905
12.718297 -9.778856 -0.280033
12.802155 -9.775210 -0.281156
12.884961 -9.770224 -0.282254
12.991075 -9.782260 -0.283858
13.080983 -9.781407 -0.285104
13.164565 -9.775260 -0.286210
13.253222 -9.772326 -0.287424
13.364435 -9.785330 -0.289122
13.453257 -9.781245 -0.290333
13.536964 -9.772896 -0.291431
13.637074 -9.775783 -0.292879
13.749038 -9.786425 -0.294577
13.824580 -9.770526 -0.295492
13.919980 -9.768132 -0.296829
14.034619 -9.778516 -0.298573
14.133407 -9.777119 -0.299976
14.226955 -9.771468 -0.301264
14.336653 -9.776230 -0.302891
14.453712 -9.785221 -0.304669
14.538373 -9.771612 -0.305762
14.648042 -9.774184 -0.307377
14.751065 -9.771608 -0.308850
14.874529 -9.781798 -0.310746
14.975261 -9.776277 -0.312164
15.082870 -9.774562 -0.313722
15.200700 -9.778709 -0.315490
15.289033 -9.763214 -0.316642
15.417943 -9.772916 -0.318631
15.549026 -9.783080 -0.320660
15.648873 -9.772818 -0.322042
15.713903 -9.740349 -0.322706
15.719395 -9.670949 -0.322151
15.704020 -9.589057 -0.321176
15.716942 -9.524752 -0.320785
15.709314 -9.448261 -0.319981
15.718618 -9.382235 -0.319528
15.709533 -9.305518 -0.318707
15.707324 -9.233208 -0.318033
15.720203 -9.169998 -0.317669
15.714926 -9.096440 -0.316944
15.713943 -9.025669 -0.316312
15.710668 -8.953869 -0.315640
15.704866 -8.880937 -0.314924
15.711014 -8.815023 -0.314453
15.720350 -8.751091 -0.314051
15.713151 -8.678204 -0.313324
15.720738 -8.613734 -0.312897
15.707601 -8.538186 -0.312064
15.721593 -8.477629 -0.311776
15.712008 -8.404585 -0.311025
15.708364 -8.335021 -0.310398
15.715045 -8.271161 -0.309980
15.701715 -8.197035 -0.309174
15.714887 -8.136979 -0.308894
15.703055 -8.064203 -0.308128
15.719847 -8.006335 -0.307929
15.720457 -7.940378 -0.307418
15.705373 -7.866779 -0.306606
15.708117 -7.802384 -0.306147
15.709393 -7.737461 -0.305664
15.714913 -7.674817 -0.305269
15.730801 -7.617359 -0.305080
15.708184 -7.541497 -0.304149
15.721132 -7.482958 -0.303913
15.714436 -7.415249 -0.303301
15.719412 -7.353259 -0.302919
15.704724 -7.282311 -0.302164
15.708044 -7.219959 -0.301760
15.715969 -7.159875 -0.301450
15.719295 -7.097844 -0.301055
15.716909 -7.033423 -0.300556
15.729425 -6.975820 -0.300347
15.691860 -6.896293 -0.299186
15.711046 -6.841967 -0.299113
15.709487 -6.778719 -0.298649
15.702214 -6.713221 -0.298081
15.720716 -6.658877 -0.298007
15.709207 -6.591970 -0.297368
15.716064 -6.532963 -0.297082
15.709340 -6.468482 -0.296543
15.708874 -6.406776 -0.296127
15.714013 -6.347506 -0.295821
15.715735 -6.286994 -0.295455
15.702240 -6.220605 -0.294807
15.711367 -6.163357 -0.294589
15.710336 -6.102252 -0.294185
15.709629 -6.041438 -0.293790
15.706355 -5.979808 -0.293353
15.719519 -5.924552 -0.293226
15.701614 -5.857757 -0.292524
15.699652 -5.797135 -0.292123
15.692483 -5.734774 -0.291631
15.704445 -5.679532 -0.291497
15.694681 -5.616569 -0.290965
15.711585 -5.563265 -0.290931
15.711376 -5.503979 -0.290584
15.725626 -5.449844 -0.290508
15.712706 -5.386426 -0.289934
15.724880 -5.331748 -0.289827
15.709788 -5.267971 -0.289222
15.711972 -5.210166 -0.288939
15.707664 -5.150345 -0.288540
15.706329 -5.091650 -0.288200
15.717323 -5.037041 -0.288091
15.702744 -4.974375 -0.287516
15.714130 -4.920070 -0.287421
15.689677 -4.854712 -0.286674
15.705990 -4.802119 -0.286677
15.703806 -4.743936 -0.286345
15.713159 -4.689328 -0.286227
15.716824 -4.633090 -0.286009
15.700944 -4.571248 -0.285440
15.709205 -4.516574 -0.285313
15.713906 -4.460939 -0.285125
15.713451 -4.403934 -0.284847
15.718035 -4.348433 -0.284665
15.706172 -4.288512 -0.284188
15.714207 -4.234143 -0.284075
15.684539 -4.169795 -0.283284
15.708218 -4.119750 -0.283461
15.704552 -4.062562 -0.283147
15.710331 -4.007906 -0.283007
15.694239 -3.947804 -0.282477
15.699925 -3.893312 -0.282343
15.715429 -3.841272 -0.282389
15.697647 -3.781195 -0.281840
15.709614 -3.728395 -0.281829
15.715468 -3.674170 -0.281711
15.692739 -3.613408 -0.281085
15.691969 -3.557871 -0.280856
15.697984 -3.503939 -0.280752
15.696589 -3.448419 -0.280519
15.706284 -3.395387 -0.280487
15.707282 -3.340518 -0.280303
15.700467 -3.284086 -0.279983
15.709990 -3.231139 -0.279958
15.702623 -3.174786 -0.279636
15.715905 -3.122662 -0.279684
15.705038 -3.065804 -0.279306
15.713319 -3.012764 -0.279273
15.708447 -2.957262 -0.279008
15.698066 -2.900843 -0.278649
15.707639 -2.848182 -0.278648
15.708953 -2.794053 -0.278504
15.701402 -2.738432 -0.278206
15.712779 -2.686163 -0.278246
15.697695 -2.629446 -0.277821
15.691771 -2.574396 -0.277562
15.691760 -2.520396 -0.277411
15.690494 -2.466257 -0.277241
15.704142 -2.414476 -0.277337
15.704060 -2.360594 -0.277195
15.706530 -2.307141 -0.277100
15.707562 -2.253518 -0.276983
15.694890 -2.198020 -0.276628
15.726021 -2.148645 -0.277049
15.694405 -2.090747 -0.276367
15.712202 -2.039526 -0.276558
15.708213 -1.985477 -0.276369
15.706649 -1.931799 -0.276226
15.718324 -1.879759 -0.276319
15.705979 -1.824892 -0.275993
15.712265 -1.772251 -0.275997
15.702203 -1.717819 -0.275718
15.692956 -1.663582 -0.275456
15.699134 -1.611028 -0.275468
15.714872 -1.559417 -0.275651
15.685939 -1.503453 -0.275053
15.708547 -1.452485 -0.275363
15.703361 -1.398921 -0.275188
15.692772 -1.344961 -0.274922
15.698228 -1.292424 -0.274940
15.717566 -1.240975 -0.275205
15.695010 -1.186257 -0.274738
15.695621 -1.133392 -0.274681
15.708711 -1.081406 -0.274845
15.712121 -1.028724 -0.274843
15.706607 -0.975487 -0.274688
15.703093 -0.922427 -0.274571
15.694103 -0.869108 -0.274361
15.708405 -0.817081 -0.274562
15.698489 -0.763797 -0.274342
15.702266 -0.711218 -0.274365
15.683424 -0.657681 -0.273995
15.694571 -0.605442 -0.274153
15.705222 -0.553124 -0.274305
15.703288 -0.500347 -0.274241
15.705751 -0.447719 -0.274256
15.699632 -0.394868 -0.274124
15.698220 -0.342170 -0.274078
15.701166 -0.289570 -0.274111
15.694424 -0.236810 -0.273978
15.700898 -0.184256 -0.274079
15.705441 -0.131647 -0.274149
15.709542 -0.079008 -0.274214
15.689566 -0.026302 -0.273862
15.706369 0.026330 -0.274156
15.687319 0.078896 -0.273826
15.696031 0.131568 -0.273984
15.679590 0.184006 -0.273707
15.700685 0.236905 -0.274087
15.702140 0.289588 -0.274128
15.695879 0.342119 -0.274037
15.703520 0.394966 -0.274192
15.699473 0.447540 -0.274146
15.705732 0.500425 -0.274283
15.710643 0.553315 -0.274400
15.707880 0.605955 -0.274386
15.687948 0.657871 -0.274074
15.692322 0.710768 -0.274191
15.709141 0.764316 -0.274528
15.711021 0.817217 -0.274607
15.695721 0.869198 -0.274389
15.696215 0.922023 -0.274450
15.695836 0.974818 -0.274499
15.691952 1.027403 -0.274490
15.702130 1.080953 -0.274730
15.692409 1.133160 -0.274625
15.697085 1.186414 -0.274775
15.702959 1.239822 -0.274949
15.702203 1.292751 -0.275010
15.680669 1.343924 -0.274710
15.696705 1.398329 -0.275072
15.690371 1.450805 -0.275044
15.700949 1.504892 -0.275317
15.697439 1.557687 -0.275345
15.715192 1.612676 -0.275750
15.708434 1.665223 -0.275728
15.705985 1.718233 -0.275784
15.693351 1.770118 -0.275665
15.701657 1.824389 -0.275917
15.715393 1.879409 -0.276267
15.689719 1.929717 -0.275928
15.705614 1.985149 -0.276323
15.694345 2.037208 -0.276244
15.695856 2.090940 -0.276392
15.698973 2.144949 -0.276572
15.690939 2.197467 -0.276559
15.698818 2.252264 -0.276829
15.692187 2.305034 -0.276847
15.699214 2.359866 -0.277109
15.692958 2.412757 -0.277140
15.699788 2.467718 -0.277405
15.685215 2.519345 -0.277295
15.718291 2.578747 -0.278031
15.692178 2.628522 -0.277724
15.695789 2.683259 -0.277945
15.689621 2.736378 -0.277997
15.698308 2.792159 -0.278315
15.705813 2.847852 -0.278616
15.691597 2.899648 -0.278535
15.683995 2.952658 -0.278574
15.700830 3.010370 -0.279051
15.694033 3.063655 -0.279111
15.696975 3.118900 -0.279347
15.688790 3.171989 -0.279390
15.687370 3.226486 -0.279555
15.690664 3.282035 -0.279809
15.699859 3.338939 -0.280171
15.690099 3.391888 -0.280198
15.680870 3.444965 -0.280238
15.707654 3.506097 -0.280925
15.701911 3.560125 -0.281034
15.685802 3.611811 -0.280961
9.856192 2.304311 -0.176679
9.859161 2.339895 -0.176872
9.860270 2.375108 -0.177034
9.860964 2.410284 -0.177191
9.849330 2.442465 -0.177128
9.853150 2.478509 -0.177345
9.865345 2.516776 -0.177715
9.846197 2.547082 -0.177523
9.842380 2.581334 -0.177609
9.862862 2.622080 -0.178137
9.853176 2.654907 -0.178121
9.855792 2.691088 -0.178331
9.838970 2.721975 -0.178191
9.851410 2.761008 -0.178583
9.850680 2.796459 -0.178738
9.837601 2.828421 -0.178672
9.846408 2.866730 -0.179006
9.843103 2.901603 -0.179121
9.856676 2.941559 -0.179547
9.855817 2.977326 -0.179712
9.835268 3.007141 -0.179520
9.841235 3.045083 -0.179814
9.849246 3.083784 -0.180149
9.843776 3.118349 -0.180239
9.849522 3.156546 -0.180537
9.829557 3.186528 -0.180366
9.819743 3.219770 -0.180383
9.830495 3.259839 -0.180780
15.691826 5.261947 -0.288891
15.684947 5.318209 -0.289091
15.702535 5.382939 -0.289746
15.691418 5.437989 -0.289876
15.686862 5.495391 -0.290130
15.688998 5.555267 -0.290513
15.697801 5.617685 -0.291023
15.683975 5.672129 -0.291117
15.681311 5.730691 -0.291423
15.693291 5.794786 -0.292005
15.681348 5.850196 -0.292146
15.700266 5.917295 -0.292867
15.682711 5.970806 -0.292911
15.683028 6.031208 -0.293293
15.689231 6.094054 -0.293789
15.702152 6.159742 -0.294416
15.688890 6.215316 -0.294557
15.700195 6.280777 -0.295163
15.691941 6.338590 -0.295405
15.701103 6.403606 -0.295980
15.691404 6.461097 -0.296204
15.680987 6.518382 -0.296419
15.682663 6.580832 -0.296866
15.690367 6.646022 -0.297432
15.674085 6.701195 -0.297547
15.677140 6.764761 -0.298034
15.679739 6.828333 -0.298517
15.688321 6.894738 -0.299119
15.703712 6.964416 -0.299856
15.697708 7.024830 -0.300189
15.682970 7.081442 -0.300360
15.666431 7.137307 -0.300500
15.682178 7.208071 -0.301264
15.694205 7.277434 -0.301962
15.691493 7.340199 -0.302381
15.702236 7.409492 -0.303065
15.681320 7.464008 -0.303143
15.688025 7.531819 -0.303759
15.686584 7.595948 -0.304223
15.696900 7.666019 -0.304919
15.677074 7.721543 -0.305035
15.685225 7.791014 -0.305701
15.693201 7.860683 -0.306368
15.673191 7.916504 -0.306494
15.675329 7.983661 -0.307057
15.693154 8.059118 -0.307934
15.685356 8.121688 -0.308314
15.683218 8.187378 -0.308809
15.690575 8.258281 -0.309498
15.683427 8.321788 -0.309905
15.680704 8.387841 -0.310406
15.677897 8.454066 -0.310909
15.687281 8.527140 -0.311661
15.691917 8.597943 -0.312324
15.694200 8.667736 -0.312946
15.684555 8.731165 -0.313335
15.678701 8.796893 -0.313806
15.687282 8.870993 -0.314571
15.689041 8.941543 -0.315206
15.694547 9.014527 -0.315922
15.679168 9.075742 -0.316223
15.683814 9.148772 -0.316934
15.691805 9.224086 -0.317718
15.690535 9.294265 -0.318322
15.698968 9.370506 -0.319129
15.691675 9.437652 -0.319622
15.676151 9.500032 -0.319953
15.673203 9.570240 -0.320545
15.688869 9.652168 -0.321526
15.682883 9.721120 -0.322069
15.680637 9.792655 -0.322696
15.677430 9.863870 -0.323308
15.684870 9.942112 -0.324148
15.676995 10.010959 -0.324677
15.570240 10.016438 -0.323159
15.467854 10.024053 -0.321730
15.348924 10.020214 -0.319953
15.247629 10.027157 -0.318541
15.137815 10.027805 -0.316947
15.013097 10.017774 -0.315038
14.910684 10.021851 -0.313592
14.802776 10.021539 -0.312027
14.699163 10.023428 -0.310550
14.607396 10.032766 -0.309320
14.483677 10.019426 -0.307410
14.386012 10.023346 -0.306049
14.287519 10.026046 -0.304667
14.182110 10.023211 -0.303134
14.087321 10.027211 -0.301825
13.979503 10.021255 -0.300233
13.894410 10.030951 -0.299126
13.783560 10.021394 -0.297461
13.691021 10.024453 -0.296188
13.595707 10.024859 -0.294851
13.490859 10.017548 -0.293304
13.395176 10.016347 -0.291952
13.311797 10.023763 -0.290866
13.213228 10.019137 -0.289445
13.124480 10.021324 -0.288235
13.038088 10.024737 -0.287074
12.940473 10.018899 -0.285663
12.845903 10.014747 -0.284315
12.770579 10.025046 -0.283390
12.688336 10.029424 -0.282310
12.588502 10.019270 -0.280834
12.511993 10.027085 -0.279876
12.424847 10.025844 -0.278677
12.340263 10.026091 -0.277532
12.258877 10.028387 -0.276456
12.161050 10.016607 -0.275006
12.087769 10.024460 -0.274107
11.988685 10.010319 -0.272620
11.911518 10.013858 -0.271627
11.826550 10.010295 -0.270454
11.763153 10.024523 -0.269771
11.676475 10.018430 -0.268552
11.605273 10.025089 -0.267686
11.518917 10.018127 -0.266467
11.456462 10.031473 -0.265799
11.372573 10.025582 -0.264631
11.286416 10.017078 -0.263406
11.209846 10.016512 -0.262402
11.132317 10.014563 -0.261371
11.067647 10.023728 -0.260641
10.993799 10.024144 -0.259692
10.917579 10.021890 -0.258683
10.839850 10.017715 -0.257636
10.777093 10.026919 -0.256942
10.692431 10.015244 -0.255723
10.618583 10.013120 -0.254758
10.554262 10.019532 -0.254019
10.484879 10.020713 -0.253157
10.401760 10.008221 -0.251959
10.338161 10.013993 -0.251230
10.265898 10.010929 -0.250288
10.206545 10.020032 -0.249659
10.137643 10.019358 -0.248794
10.071413 10.020875 -0.247991
9.996427 10.013186 -0.246970
9.937579 10.021214 -0.246345
9.872065 10.022133 -0.245553
9.796435 10.012280 -0.244505
9.740297 10.021905 -0.243941
9.663730 10.010056 -0.242863
9.611461 10.022949 -0.242392
9.540449 10.015904 -0.241447
9.467922 10.006730 -0.240459
9.407689 10.010083 -0.239781
9.352918 10.018907 -0.239239
9.283928 10.012091 -0.238332
9.233059 10.024436 -0.237888
9.158617 10.010761 -0.236833
9.103654 10.017920 -0.236279
9.045628 10.021370 -0.235644
8.982281 10.018519 -0.234867
8.916585 10.012585 -0.234026
8.848561 10.003530 -0.233120
8.798203 10.014055 -0.232676
8.735937 10.010677 -0.231916
8.690281 10.026017 -0.231595
8.628340 10.022251 -0.230838
8.562502 10.013484 -0.229974
8.500481 10.008698 -0.229208
8.438871 10.003943 -0.228450
8.398682 10.024302 -0.228271
8.320415 9.998797 -0.227053
8.277748 10.015633 -0.226804
8.218630 10.012275 -0.226103
8.163603 10.013511 -0.225511
8.111633 10.018163 -0.225002
8.059835 10.022716 -0.224496
7.989974 10.004340 -0.223483
7.946929 10.019151 -0.223218
7.888258 10.013959 -0.222512
7.833043 10.012745 -0.221900
7.783416 10.018342 -0.221444
7.733183 10.022867 -0.220970
7.671699 10.012409 -0.220171
7.620743 10.015283 -0.219671
7.560092 10.005009 -0.218889
7.512744 10.011961 -0.218488
7.471582 10.026958 -0.218268
7.420089 10.027853 -0.217745
7.363316 10.021223 -0.217063
7.299829 10.004948 -0.216179
7.251495 10.009010 -0.215741
7.206691 10.017693 -0.215406
7.151381 10.011445 -0.214755
7.110417 10.024992 -0.214533
7.045800 10.004807 -0.213594
7.003908 10.016493 -0.213341
6.944549 10.002848 -0.212553
6.902415 10.013662 -0.212290
6.847570 10.005723 -0.211634
6.798555 10.005918 -0.211155
6.752238 10.009783 -0.210757
6.706962 10.014928 -0.210391
6.659865 10.017082 -0.209966
6.616323 10.024327 -0.209652
6.558355 10.009335 -0.208877
6.512583 10.012548 -0.208487
6.464129 10.011333 -0.208009
6.418726 10.014539 -0.207628
6.372684 10.016466 -0.207224
6.334699 10.030864 -0.207081
6.271668 10.005202 -0.206116
6.227457 10.009089 -0.205765
6.182382 10.011319 -0.205383
6.135777 10.010775 -0.204949
6.091563 10.013841 -0.204592
6.045370 10.013364 -0.204167
5.995804 10.006941 -0.203625
5.950056 10.006533 -0.203210
5.906864 10.010142 -0.202880
5.854454 9.997761 -0.202230
5.816377 10.009548 -0.202073
5.765500 9.999018 -0.201469
5.727980 10.011367 -0.201329
5.677682 10.001100 -0.200739
5.637071 10.007568 -0.200488
5.592117 10.006070 -0.200082
5.547571 10.004985 -0.199687
5.506125 10.009222 -0.199402
5.456529 9.998299 -0.198819
5.418322 10.007940 -0.198648
5.376266 10.010281 -0.198336
5.328362 10.001387 -0.197804
5.288949 10.008125 -0.197586
5.249018 10.013694 -0.197347
5.204418 10.010086 -0.196931
5.157269 10.001190 -0.196415
5.118074 10.007407 -0.196199
5.074158 10.004137 -0.195800
5.032488 10.004991 -0.195485
4.992436 10.008818 -0.195232
4.950472 10.008562 -0.194902
4.915720 10.022723 -0.194856
4.872361 10.019147 -0.194468
4.822474 10.001687 -0.193814
4.782313 10.003995 -0.193547
4.742413 10.006613 -0.193289
4.697664 9.998677 -0.192830
4.662467 10.010836 -0.192762
4.616415 9.999420 -0.192243
4.579791 10.008128 -0.192114
4.537846 10.004987 -0.191761
4.497305 10.004639 -0.191464
4.466965 10.026909 -0.191602
4.421323 10.014652 -0.191084
4.378139 10.007517 -0.190667
4.337099 10.004926 -0.190339
4.298216 10.007040 -0.190104
4.258965 10.008060 -0.189851
4.218252 10.005361 -0.189531
4.178244 10.004033 -0.189239
4.139795 10.006182 -0.189016
4.098794 10.001875 -0.188674
4.056487 9.994007 -0.188268
4.017955 9.995111 -0.188034
3.987681 10.016715 -0.188188
3.945387 10.007991 -0.187774
3.902385 9.997020 -0.187322
3.861974 9.992270 -0.186989
3.829866 10.008862 -0.187058
3.794356 10.016549 -0.186963
3.754313 10.012045 -0.186643
3.712084 10.001299 -0.186210
3.673004 9.998646 -0.185930
3.637949 10.006747 -0.185853
3.597769 10.000520 -0.185512
3.560442 10.001915 -0.185316
3.523684 10.004703 -0.185147
3.483377 9.997108 -0.184789
3.447997 10.003385 -0.184691
3.413020 10.010729 -0.184614
3.370690 9.996179 -0.184136
3.338049 10.010101 -0.184186
3.305814 10.025318 -0.184261
3.258535 9.994486 -0.183492
3.221404 9.994177 -0.183287
3.185590 9.997744 -0.183156
3.149127 9.999083 -0.182986
3.114384 10.005728 -0.182915
3.076747 10.002875 -0.182673
3.036749 9.991936 -0.182287
3.005631 10.010055 -0.182432
2.968243 10.007231 -0.182198
2.932141 10.008480 -0.182041
2.896204 10.010086 -0.181893
2.856968 9.999935 -0.181533
2.823482 10.009664 -0.181537
2.784683 10.000318 -0.181197
2.750296 10.006537 -0.181142
2.713881 10.005196 -0.180952
2.674719 9.993311 -0.180574
2.642688 10.007864 -0.180675
2.603138 9.993709 -0.180261
2.572883 10.015094 -0.180490
2.537018 10.014698 -0.180329
2.497424 9.999114 -0.179897
2.464457 10.009755 -0.179938
2.426967 10.001829 -0.179649
2.388255 9.988312 -0.179261
2.356167 10.002267 -0.179369
2.318374 9.991819 -0.179041
2.285967 10.004377 -0.179127
2.251572 10.008255 -0.179061
2.214273 9.998903 -0.178760
2.181338 10.009031 -0.178809
2.146713 10.011371 -0.178721
2.108461 9.996354 -0.178326
2.074894 10.003181 -0.178323
2.040394 10.005424 -0.178240
2.005450 10.005291 -0.178116
1.967907 9.991725 -0.177756
1.935690 10.004956 -0.177875
1.901804 10.009649 -0.177844
1.864198 9.994338 -0.177460
1.829708 9.995230 -0.177366
1.798284 10.012995 -0.177574
1.762098 10.004181 -0.177311
1.727097 10.001644 -0.177163
1.690462 9.989106 -0.176839
1.657888 10.000311 -0.176938
1.623107 9.998163 -0.176803
1.588466 9.996564 -0.176680
1.554492 9.998947 -0.176629
1.520208 9.999162 -0.176541
1.487298 10.008404 -0.176616
1.452676 10.006049 -0.176487
1.417288 9.997942 -0.176259
1.384473 10.007803 -0.176350
1.349318 10.000582 -0.176142
1.314568 9.995833 -0.175980
1.281168 10.001131 -0.175997
1.246550 9.996718 -0.175844
1.213220 10.002444 -0.175873
1.180906 10.016880 -0.176056
1.145489 10.004839 -0.175776
1.110644 9.996968 -0.175571
1.077155 10.000971 -0.175577
1.044459 10.012589 -0.175718
1.009547 10.002804 -0.175486
0.975203 9.997920 -0.175342
0.941875 10.003238 -0.175379
0.907817 10.000687 -0.175280
0.873520 9.994952 -0.175127
0.840358 10.002049 -0.175201
0.806480 10.000615 -0.175128
0.772274 9.994566 -0.174976
0.739123 10.002019 -0.175062
0.706315 10.014810 -0.175243
0.672071 10.007256 -0.175071
0.638307 10.006188 -0.175013
0.603409 9.986011 -0.174624
0.570407 9.996439 -0.174772
0.536877 9.998088 -0.174768
0.502931 9.991473 -0.174622
0.469674 9.998324 -0.174714
0.436874 10.016474 -0.175004
0.402207 9.991023 -0.174535
0.368843 9.996006 -0.174599
0.334614 9.975958 -0.174229
0.301794 9.997861 -0.174593
0.268198 9.996074 -0.174545
0.234903 10.006367 -0.174710
0.201333 10.006150 -0.174693
0.167597 9.995664 -0.174499
0.133986 9.988952 -0.174373
0.100494 9.989311 -0.174373
0.067094 10.003468 -0.174615
0.033526 9.995239 -0.174468
0.000013 9.998089 -0.174517
-0.033457 9.982793 -0.174251
-0.067072 10.004226 -0.174628
-0.100595 10.001986 -0.174594
-0.134035 9.994580 -0.174471
-0.167699 10.003321 -0.174633
-0.201444 10.012993 -0.174813
-0.234816 10.003786 -0.174665
-0.268050 9.991568 -0.174466
-0.301961 10.004270 -0.174704
-0.335282 9.996659 -0.174590
-0.369371 10.011038 -0.174862
-0.402339 9.994953 -0.174604
-0.436085 9.998976 -0.174698
-0.469506 9.995302 -0.174661
-0.503487 10.003044 -0.174825
-0.536569 9.992863 -0.174677
-0.570476 9.998106 -0.174801
-0.603751 9.992118 -0.174731
-0.637187 9.989051 -0.174714
-0.671202 9.994715 -0.174851
-0.705840 10.008444 -0.175132
-0.738395 9.992531 -0.174896
-0.772806 10.001802 -0.175102
-0.805937 9.994210 -0.175016
-0.841305 10.013638 -0.175404
-0.873774 9.998165 -0.175184
-0.907419 9.996596 -0.175208
-0.940937 9.993558 -0.175209
-0.974256 9.988478 -0.175177
-1.008572 9.993402 -0.175321
-1.042118 9.990407 -0.175329
-1.076671 9.996722 -0.175502
-1.110050 9.991872 -0.175481
-1.144857 9.999553 -0.175683
-1.178079 9.993133 -0.175638
-1.214208 10.010811 -0.176020
-1.247225 10.002351 -0.175943
-1.281654 10.005135 -0.176067
-1.314782 9.997663 -0.176012
-1.350351 10.008436 -0.176281
-1.384184 10.005911 -0.176317
-1.415544 9.985833 -0.176046
-1.452482 10.004901 -0.176467
-1.483983 9.986275 -0.176225
-1.520961 10.004292 -0.176632
-1.556409 10.011452 -0.176849
-1.590238 10.007883 -0.176880
-1.624689 10.008071 -0.176978
-1.658569 10.004581 -0.177014
-1.691375 9.994667 -0.176938
-1.727498 10.004123 -0.177207
-1.762799 10.008317 -0.177385
-1.795728 9.998913 -0.177324
-1.831675 10.006127 -0.177560
-1.863095 9.988573 -0.177358
-1.899901 9.999781 -0.177669
-1.934806 10.000530 -0.177797
-1.970250 10.003759 -0.177970
-2.003187 9.994142 -0.177918
-2.038852 9.997998 -0.178107
-2.074355 10.000713 -0.178278
-2.109297 10.000449 -0.178399
-2.143625 9.997100 -0.178466
-2.178006 9.993870 -0.178538
-2.213911 9.997393 -0.178732
-2.250034 10.001543 -0.178941
-2.285164 10.000985 -0.179067
-2.316963 9.985857 -0.178934
-2.354894 9.996979 -0.179274
-2.388271 9.988496 -0.179264
-2.424385 9.991302 -0.179459
-2.459896 9.991344 -0.179607
-2.497396 9.999117 -0.179896
-2.534188 10.003638 -0.180130
-2.568771 9.999200 -0.180204
-2.601768 9.988558 -0.180168
-2.638324 9.991444 -0.180379
-2.675843 9.997616 -0.180651
-2.710159 9.991580 -0.180705
-2.750784 10.008414 -0.181176
-2.787657 10.011102 -0.181392
-2.819676 9.996272 -0.181294
-2.860417 10.012110 -0.181754
-2.894100 10.002912 -0.181762
-2.931211 10.005404 -0.181985
-2.967782 10.005776 -0.182172
-3.003161 10.001925 -0.182284
-3.040487 10.004328 -0.182513
-3.072874 9.990376 -0.182445
-3.111596 9.996863 -0.182753
-3.146364 9.990401 -0.182827
-3.182207 9.987218 -0.182963
-3.225237 10.006160 -0.183507
-3.260144 9.999511 -0.183584
-3.292511 9.985065 -0.183521
-3.331914 9.991792 -0.183849
-3.371341 9.998197 -0.184173
-3.406651 9.992138 -0.184271
-3.445689 9.996775 -0.184569
-3.484007 9.999000 -0.184824
-3.520604 9.996041 -0.184987
-3.552336 9.979227 -0.184895
-3.594504 9.991527 -0.185345
-3.636173 10.001945 -0.185764
-3.666281 9.980424 -0.185591
-3.709410 9.994177 -0.186077
-3.741974 9.979220 -0.186031
-3.785482 9.993203 -0.186527
-3.827631 10.003098 -0.186951
-3.856960 9.979375 -0.186748
-3.903953 10.001113 -0.187398
-3.940041 9.994508 -0.187521
-3.978780 9.994431 -0.187769
-4.016401 9.991321 -0.187962
-4.050329 9.978910 -0.187983
-4.097303 9.998314 -0.188607
-4.136726 9.998838 -0.188877
-4.170607 9.985822 -0.188894
-4.216813 10.002022 -0.189467
-4.249832 9.986670 -0.189445
-4.289615 9.987087 -0.189725
-4.331502 9.992089 -0.190095
-4.378384 10.008149 -0.190678
-4.411310 9.992043 -0.190652
-4.452262 9.993978 -0.190973
-4.482499 9.971772 -0.190835
-4.540968 10.011942 -0.191894
-4.573386 9.994203 -0.191847
-4.607994 9.981249 -0.191893
-4.653698 9.992079 -0.192401
-4.695756 9.994685 -0.192753
-4.738024 9.997420 -0.193111
-4.779028 9.997192 -0.193415
-4.813179 9.982480 -0.193441
-4.860802 9.995444 -0.194007
-4.893123 9.976717 -0.193961
-4.939729 9.986909 -0.194480
-4.982833 9.989632 -0.194857
-5.026549 9.993250 -0.195256
-5.063715 9.983612 -0.195398
-5.112536 9.996646 -0.195987
-5.149551 9.986287 -0.196122
-5.199521 10.000733 -0.196747
-5.234613 9.986279 -0.196807
-5.275638 9.983000 -0.197089
-5.320433 9.986567 -0.197511
-5.367470 9.993964 -0.198012
-5.412892 9.997975 -0.198450
-5.455228 9.995978 -0.198772
-5.491018 9.981824 -0.198856
-5.538145 9.988049 -0.199349
-5.572908 9.971761 -0.199395
-5.628788 9.992925 -0.200195
-5.674422 9.995419 -0.200625
-5.711049 9.981836 -0.200735
-5.759591 9.988832 -0.201263
-5.802753 9.986164 -0.201600
-5.850279 9.990691 -0.202087
-5.897957 9.995109 -0.202575
-5.949824 10.006203 -0.203203
-5.983011 9.985650 -0.203192
-6.027166 9.983271 -0.203553
-6.081090 9.996684 -0.204241
-6.126975 9.996473 -0.204656
-6.169113 9.989893 -0.204943
-6.218699 9.995072 -0.205476
-6.258818 9.984762 -0.205694
-6.303483 9.981494 -0.206061
-6.355893 9.990133 -0.206678
-6.399478 9.984567 -0.207006
-6.451096 9.991206 -0.207591
-6.504434 10.000077 -0.208227
-6.550084 9.996769 -0.208614
-6.596878 9.994924 -0.209036
-6.637666 9.983750 -0.209267
-6.691196 9.991444 -0.209897
-6.731065 9.978453 -0.210097
-6.787039 9.989025 -0.210798
-6.836918 9.990215 -0.211305
-6.883358 9.986071 -0.211705
-6.929995 9.981941 -0.212109
-6.988687 9.994781 -0.212878
-7.041939 9.999381 -0.213478
-7.089099 9.994993 -0.213890
-7.133824 9.986922 -0.214228
-7.190776 9.995625 -0.214931
-7.230537 9.980140 -0.215118
-7.288743 9.989809 -0.215852
-7.333780 9.981082 -0.216193
-7.390780 9.988299 -0.216885
-7.441807 9.987056 -0.217399
-7.490307 9.982116 -0.217837
-7.552756 9.995354 -0.218677
-7.605552 9.995374 -0.219234
-7.653563 9.988795 -0.219651
-7.699931 9.979824 -0.220021
-7.762883 9.991967 -0.220861
-7.818249 9.993889 -0.221482
-7.871870 9.993209 -0.222050
-7.933843 10.002707 -0.222851
-7.970464 9.979967 -0.222939
-8.031135 9.987080 -0.223698
-8.087665 9.988615 -0.224338
-8.139393 9.983870 -0.224843
-8.197613 9.986725 -0.225525
-8.251105 9.983450 -0.226075
-8.315657 9.993133 -0.226924
-8.367777 9.987470 -0.227431
-8.411873 9.971992 -0.227720
-8.485586 9.991214 -0.228807
-8.540584 9.987905 -0.229386
-8.592848 9.981079 -0.229890
-8.662217 9.993692 -0.230848
-8.708891 9.979737 -0.231199
-8.772019 9.984306 -0.231984
-8.831669 9.984486 -0.232675
-8.891469 9.984434 -0.233368
-8.947730 9.980036 -0.233965
-9.015683 9.988249 -0.234864
-9.069049 9.979894 -0.235382
-9.133396 9.983247 -0.236182
-9.189066 9.976725 -0.236755
-9.252494 9.978244 -0.237526
-9.311747 9.974857 -0.238187
-9.392718 9.994208 -0.239400
-9.447440 9.985135 -0.239940
-9.520125 9.994620 -0.240933
-9.568331 9.978025 -0.241305
-9.635558 9.980927 -0.242155
-9.698392 9.978841 -0.242892
-9.773163 9.988547 -0.243925
-9.830805 9.980299 -0.244527
-9.908683 9.992127 -0.245629
-9.954679 9.971421 -0.245940
-10.035287 9.984983 -0.247102
-10.102311 9.984492 -0.247927
-10.163245 9.977576 -0.248600
-10.241960 9.987638 -0.249705
-10.316586 9.993150 -0.250706
-10.376246 9.983725 -0.251341
-10.447565 9.985105 -0.252256
-10.515592 9.982873 -0.253089
-10.588707 9.985001 -0.254042
-10.649061 9.974673 -0.254686
-10.734948 9.987761 -0.255938
-10.805840 9.986338 -0.256828
-10.876385 9.984128 -0.257708
-10.951544 9.985669 -0.258694
-11.020877 9.981422 -0.259540
-11.094545 9.980638 -0.260485
-11.168864 9.979945 -0.261443
-11.238881 9.974942 -0.262298
-11.325877 9.984470 -0.263545
-11.397444 9.979850 -0.264430
-11.488202 9.991467 -0.265757
-11.560483 9.986451 -0.266653
-11.628956 9.977712 -0.267460
-11.709480 9.978836 -0.268541
-11.795597 9.984149 -0.269746
-11.878394 9.986065 -0.270873
-11.940604 9.970226 -0.271527
-12.042435 9.986918 -0.273080
-12.123878 9.986044 -0.274166
-12.193483 9.974946 -0.274982
-12.277506 9.975157 -0.276121
-12.360977 9.974360 -0.277245
-12.460793 9.986108 -0.278731
-12.536098 9.977617 -0.279666
-12.614395 9.971031 -0.280665
-12.707336 9.975453 -0.281987
-12.801002 9.979796 -0.283322
-12.884418 9.975554 -0.284426
-12.978905 9.979288 -0.285772
-13.067082 9.977552 -0.286975
-13.160133 9.978932 -0.288282
-13.245584 9.973959 -0.289420
-13.344101 9.978211 -0.290840
-13.445864 9.984192 -0.292326
-13.528026 9.975010 -0.293384
-13.627339 9.977881 -0.294811
-13.723341 9.977667 -0.296162
-13.820515 9.977657 -0.297536
-13.915354 9.975325 -0.298856
-14.018478 9.978266 -0.300350
-14.106251 9.969653 -0.301513
-14.110273 9.901723 -0.300888
-14.122538 9.839828 -0.300444
-14.115215 9.764589 -0.299590
-14.124002 9.700812 -0.299084
-14.110087 9.621789 -0.298105
-14.128318 9.564982 -0.297811
-14.114417 9.486714 -0.296846
-14.118585 9.420948 -0.296267
-14.109303 9.346538 -0.295413
-14.120813 9.286193 -0.295001
-14.111606 9.212511 -0.294162
-14.109642 9.143908 -0.293480
-14.109402 9.076723 -0.292840
-14.113209 9.012414 -0.292291
-14.116461 8.948003 -0.291735
-14.111303 8.878551 -0.291011
-14.115335 8.815166 -0.290483
-14.107686 8.744778 -0.289721
-14.108153 8.679727 -0.289131
-14.118201 8.620790 -0.288743
-14.110987 8.551565 -0.288008
-14.109520 8.486126 -0.287395
-14.121599 8.429047 -0.287064
-14.117535 8.362551 -0.286410
-14.114425 8.296907 -0.285781
-14.108788 8.230069 -0.285107
-14.107950 8.166306 -0.284535
-14.113646 8.106550 -0.284100
-14.114008 8.043945 -0.283563
-14.113884 7.981302 -0.283021
-14.120152 7.922482 -0.282612
-14.127303 7.864335 -0.282226
-14.106168 7.790732 -0.281281
-14.119417 7.736384 -0.281026
-14.117089 7.673679 -0.280466
