# This PCD file was generated using the MATLAB® pcwrite function
# from Computer Vision Toolbox®.
# .PCD v.7 - Point Cloud Data file format
VERSION .7
FIELDS x y z
SIZE 4 4 4
TYPE F F F
COUNT 1 1 1
WIDTH 1639
HEIGHT 1
VIEWPOINT 0 0 0 1 0 0 0
POINTS 1639
DATA ascii
9.738873 -0.933444 -1.901718
9.740651 -0.900666 -1.901465
9.744001 -0.868037 -1.901540
9.719470 -0.833015 -1.896197
9.736733 -0.801618 -1.899030
9.739900 -0.769010 -1.899134
9.740438 -0.736200 -1.898747
9.744144 -0.703631 -1.898999
9.746373 -0.670952 -1.898984
9.757712 -0.638869 -1.900765
9.765792 -0.606522 -1.901932
9.744809 -0.572427 -1.897461
9.761324 -0.540563 -1.900313
9.762601 -0.507807 -1.900220
9.756675 -0.474703 -1.898746
9.765820 -0.442333 -1.900226
9.772396 -0.409803 -1.901228
9.772133 -0.376975 -1.900920
9.770333 -0.344103 -1.900335
9.774072 -0.311427 -1.900848
9.763391 -0.278322 -1.898579
9.779593 -0.245971 -1.901558
9.769752 -0.212949 -1.899495
9.767889 -0.180145 -1.899005
9.775907 -0.147507 -1.900457
9.773969 -0.114701 -1.899995
9.785204 -0.082022 -1.902115
9.774151 -0.049157 -1.899924
9.778207 -0.016392 -1.900691
9.766674 0.016373 -1.898449
9.783729 0.049205 -1.901785
9.783511 0.082008 -1.901786
9.757734 0.114511 -1.896839
9.774151 0.147480 -1.900116
9.778831 0.180347 -1.901133
9.759747 0.212731 -1.897550
9.763890 0.245576 -1.898505
9.761658 0.278272 -1.898242
9.780910 0.311645 -1.902178
9.756990 0.343633 -1.897740
9.780500 0.377298 -1.902548
9.758546 0.409222 -1.898533
9.761415 0.442133 -1.899369
9.761774 0.474951 -1.899738
9.764115 0.507885 -1.900515
9.766745 0.540863 -1.901369
9.754714 0.573009 -1.899390
9.758740 0.606084 -1.900559
9.754751 0.638675 -1.900189
9.740750 0.670565 -1.897888
9.748038 0.703913 -1.899758
9.753836 0.737213 -1.901358
9.739619 0.768988 -1.899079
9.754453 0.803077 -1.902486
9.731161 0.834017 -1.898478
9.725662 0.866403 -1.897961
9.745282 0.901094 -1.902369
9.739813 0.933534 -1.901901
9.728650 0.965393 -1.900343
9.723877 0.997853 -1.900053
9.727367 1.031181 -1.901400
9.711391 1.062425 -1.898963
9.700520 1.094162 -1.897544
9.717690 1.129107 -1.901632
9.699591 1.159977 -1.898841
9.706730 1.193854 -1.901012
9.698499 1.225865 -1.900194
9.687140 1.257442 -1.898784
9.701470 1.292392 -1.902431
9.680689 1.322672 -1.899215
9.690784 1.357164 -1.902077
9.666686 1.386851 -1.898250
9.671231 1.420613 -1.900067
9.661431 1.452281 -1.899088
9.660805 1.485327 -1.899933
9.643021 1.515705 -1.897424
9.652196 1.550327 -1.900241
9.648376 1.582915 -1.900524
9.646262 1.615799 -1.901164
9.654160 1.650418 -1.903800
9.631045 1.679720 -1.900342
9.622886 1.711562 -1.899853
9.610704 1.742658 -1.898591
9.614570 1.776675 -1.900521
9.601468 1.807566 -1.899119
9.607910 1.842155 -1.901604
9.589472 1.871975 -1.899186
9.585664 1.904617 -1.899686
9.578039 1.936506 -1.899451
9.578726 1.970096 -1.900886
9.582927 2.004472 -1.903043
9.559570 2.033064 -1.899747
9.550847 2.064704 -1.899379
9.554349 2.099016 -1.901464
9.534472 2.128185 -1.898918
9.535460 2.161994 -1.900548
9.526460 2.193561 -1.900209
9.528622 2.227727 -1.902119
9.515430 2.258317 -1.900987
9.507047 2.290025 -1.900835
9.490879 2.319825 -1.899147
9.488909 2.353086 -1.900321
9.461265 2.379932 -1.896372
9.486112 2.420029 -1.902968
9.465318 2.448554 -1.900433
9.459224 2.480844 -1.900869
9.447133 2.511557 -1.900120
9.431004 2.541154 -1.898579
9.428673 2.574464 -1.899837
9.429297 2.608638 -1.901715
9.409953 2.637282 -1.899586
9.395353 2.667198 -1.898433
9.379657 2.696757 -1.897078
9.373899 2.729162 -1.897753
9.379098 2.764821 -1.900672
9.366542 2.795287 -1.900016
9.357059 2.826658 -1.900004
9.329684 2.852558 -1.896377
9.341821 2.890554 -1.900803
9.318543 2.917622 -1.898047
9.318380 2.951912 -1.900019
9.307570 2.982862 -1.899843
9.307053 3.017143 -1.901791
9.300638 3.049562 -1.902560
9.272770 3.074895 -1.898957
9.270185 3.108576 -1.900551
9.252152 3.137077 -1.899000
9.250676 3.171197 -1.900869
9.239193 3.201918 -1.900704
9.218802 3.229513 -1.898726
9.231469 3.268741 -1.903582
9.198689 3.291884 -1.899088
9.200752 3.327463 -1.901806
9.198146 3.361437 -1.903586
9.150506 3.378847 -1.896061
9.167502 3.420094 -1.901948
9.149745 3.448460 -1.900652
9.136547 3.478515 -1.900322
9.126832 3.509898 -1.900739
9.115575 3.540697 -1.900856
9.095138 3.567900 -1.899078
9.083396 3.598481 -1.899135
9.082114 3.633250 -1.901403
9.058889 3.659240 -1.899099
9.047215 3.689856 -1.899234
9.053487 3.727866 -1.903164
9.032700 3.754776 -1.901430
9.016500 3.783545 -1.900679
8.995620 3.810305 -1.898960
8.990037 3.843541 -1.900492
8.979831 3.874840 -1.901070
8.961637 3.902683 -1.899978
8.933094 3.925936 -1.896706
8.937454 3.963658 -1.900443
8.924564 3.993803 -1.900539
8.913977 4.024991 -1.901147
8.887743 4.049074 -1.898437
8.882329 4.082625 -1.900194
8.865629 4.111010 -1.899559
8.848816 4.139318 -1.898920
8.842835 4.172713 -1.900628
8.823199 4.199674 -1.899423
8.814344 4.231765 -1.900560
8.789484 4.256151 -1.898266
8.780845 4.288371 -1.899495
8.761724 4.315475 -1.898478
8.759865 4.351115 -1.901226
8.725457 4.370558 -1.896928
8.730297 4.409659 -1.901183
8.709921 4.436083 -1.899974
8.686663 4.460979 -1.898153
8.683722 4.496326 -1.900794
8.660169 4.521016 -1.898946
8.644297 4.549676 -1.898799
8.633001 4.580760 -1.899681
8.622907 4.612520 -1.900852
8.595901 4.635208 -1.898314
8.588597 4.668507 -1.900147
8.562249 4.691442 -1.897788
8.552328 4.723359 -1.899088
8.546108 4.757386 -1.901238
8.524768 4.783016 -1.900048
8.520016 4.817979 -1.902578
8.494664 4.841303 -1.900531
8.475864 4.868309 -1.899966
8.446664 4.889274 -1.897085
8.439644 4.923061 -1.899204
8.437881 4.960025 -1.902539
8.409777 4.981519 -1.899958
8.396285 5.011631 -1.900695
8.376770 5.038152 -1.900091
8.343485 5.056303 -1.896375
8.352359 5.100048 -1.902268
8.321054 5.119312 -1.899037
8.300097 5.144860 -1.898180
8.298907 5.182719 -1.901871
8.275024 5.206450 -1.900388
8.246319 5.227064 -1.897810
8.246183 5.265817 -1.901831
8.211323 5.282398 -1.897865
8.193881 5.310103 -1.897938
8.185374 5.343645 -1.900107
8.168236 5.371601 -1.900299
8.152158 5.400268 -1.900760
8.139954 5.431538 -1.902150
8.108512 5.449938 -1.899062
8.093266 5.479173 -1.899783
8.076998 5.507742 -1.900288
8.053067 5.531070 -1.899010
8.042506 5.563594 -1.900908
8.036103 5.599095 -1.903821
7.990229 5.607020 -1.897396
7.971928 5.634162 -1.897526
7.962502 5.667627 -1.899794
7.940730 5.692339 -1.899143
7.942339 5.733904 -1.904115
7.909539 5.750662 -1.900863
7.887719 5.775323 -1.900262
7.849761 5.788059 -1.895782
7.842504 5.823399 -1.898734
7.829711 5.854728 -1.900379
7.805076 5.877210 -1.899171
7.787145 5.904725 -1.899615
7.763539 5.927926 -1.898694
7.742580 5.953123 -1.898439
7.727210 5.982635 -1.899578
7.715526 6.015072 -1.901653
7.685196 6.032964 -1.899152
7.668155 6.061249 -1.899952
7.657794 6.094889 -1.902438
7.631742 6.116062 -1.901050
7.617622 6.146803 -1.902655
7.580096 6.158599 -1.898429
7.569431 6.192181 -1.900947
7.545322 6.214803 -1.900115
7.520082 6.236450 -1.899014
7.501682 6.263759 -1.899660
7.478718 6.287261 -1.899172
7.460201 6.314505 -1.899835
7.440262 6.340568 -1.900161
7.415214 6.362263 -1.899201
7.404037 6.395896 -1.901820
7.375988 6.414977 -1.900129
7.359455 6.444064 -1.901425
7.332731 6.464227 -1.900110
7.322280 6.498773 -1.903037
7.297386 6.520549 -1.902239
7.267725 6.538001 -1.900210
7.240799 6.557835 -1.898908
7.218196 6.581551 -1.898757
7.201210 6.610415 -1.900108
7.176361 6.632078 -1.899408
7.144802 6.647465 -1.896944
7.138793 6.686669 -1.901290
7.108910 6.703566 -1.899307
7.082768 6.723921 -1.898335
7.060524 6.747954 -1.898426
7.048822 6.782137 -1.901383
7.023909 6.803665 -1.900805
7.000062 6.826204 -1.900535
6.978118 6.850602 -1.900803
6.953295 6.872165 -1.900307
6.939951 6.905127 -1.902976
6.904638 6.916214 -1.899641
6.883981 6.941917 -1.900351
6.857183 6.961421 -1.899386
6.835276 6.985877 -1.899795
6.816455 7.013529 -1.901089
6.788306 7.031584 -1.899803
6.758755 7.048112 -1.898135
6.747881 7.084167 -1.901741
6.705013 7.086587 -1.896345
6.691068 7.119512 -1.899142
6.665570 7.140203 -1.898689
6.650806 7.172447 -1.901323
6.622236 7.189836 -1.900036
6.585767 7.198525 -1.896487
6.581480 7.242448 -1.902234
6.556481 7.263721 -1.902037
6.529002 7.282219 -1.901138
6.494678 7.292983 -1.898252
6.475777 7.321035 -1.899892
6.457518 7.349903 -1.901754
6.429193 7.367334 -1.900676
6.400444 7.384221 -1.899486
6.376713 7.406874 -1.899802
6.358087 7.435514 -1.901670
6.327581 7.450266 -1.900006
6.295667 7.463260 -1.897926
6.277313 7.492329 -1.899955
6.247636 7.507900 -1.898582
6.226460 7.533683 -1.899812
6.204156 7.558160 -1.900728
6.176857 7.576560 -1.900136
6.141268 7.584689 -1.897000
6.117810 7.607733 -1.897623
6.089388 7.624595 -1.896726
6.072809 7.656340 -1.899547
6.052719 7.683785 -1.901310
6.022321 7.698153 -1.899859
5.990598 7.710734 -1.897996
5.970784 7.738647 -1.899928
5.950689 7.766303 -1.901809
5.918232 7.777820 -1.899760
5.896651 7.803614 -1.901220
5.871937 7.825317 -1.901701
5.835541 7.831371 -1.898406
5.816146 7.860210 -1.900659
5.781917 7.868993 -1.898085
5.755653 7.888544 -1.898135
5.733214 7.913375 -1.899474
5.709218 7.936122 -1.900329
5.675017 7.944636 -1.897801
5.655310 7.973433 -1.900140
5.630484 7.995103 -1.900794
5.608672 8.021124 -1.902499
5.582059 8.040334 -1.902605
5.542978 8.041461 -1.898464
5.511211 8.053025 -1.896821
5.488058 8.077166 -1.898162
5.461003 8.095606 -1.898182
5.438245 8.120463 -1.899725
5.410272 8.137574 -1.899473
5.382803 8.155433 -1.899419
5.356908 8.175691 -1.899943
5.330469 8.195148 -1.900301
5.304571 8.215465 -1.900877
5.276290 8.232102 -1.900622
5.247895 8.248545 -1.900346
5.221271 8.267774 -1.900732
5.187764 8.276048 -1.898625
5.161192 8.295333 -1.899068
5.132734 8.311593 -1.898840
5.108425 8.334607 -1.900174
5.088238 8.364488 -1.903087
5.046755 8.359288 -1.898043
5.026243 8.388752 -1.900896
4.989232 8.390662 -1.897528
4.970300 8.422983 -1.901058
4.937643 8.432104 -1.899369
4.914648 8.457741 -1.901422
4.883863 8.470008 -1.900487
4.853592 8.483111 -1.899765
4.820274 8.490795 -1.897856
4.798241 8.518382 -1.900416
4.764534 8.525262 -1.898376
4.735500 8.540424 -1.898206
4.712513 8.566568 -1.900495
4.678819 8.573257 -1.898488
4.653770 8.595771 -1.900007
4.622968 8.607685 -1.899204
4.595396 8.625602 -1.899747
4.571182 8.649916 -1.901716
4.539767 8.660638 -1.900716
4.508400 8.671378 -1.899745
4.476833 8.681660 -1.898698
4.454154 8.709240 -1.901453
4.419442 8.713307 -1.899096
4.396414 8.740425 -1.901783
4.364337 8.749608 -1.900586
4.332601 8.759388 -1.899544
4.306766 8.781118 -1.901115
4.275033 8.790849 -1.900108
4.250369 8.815158 -1.902271
4.215672 8.818654 -1.899964
4.181278 8.822604 -1.897784
4.159823 8.853919 -1.901510
4.128055 8.863395 -1.900561
4.094809 8.869592 -1.898936
4.068295 8.890368 -1.900453
4.040635 8.908742 -1.901474
4.009782 8.920102 -1.901018
3.976646 8.926301 -1.899487
3.947160 8.940634 -1.899711
3.918334 8.956498 -1.900279
3.891854 8.977825 -1.902025
3.854145 8.973160 -1.898288
3.824023 8.985997 -1.898281
3.795571 9.002795 -1.899130
3.764277 9.012864 -1.898581
3.735437 9.028819 -1.899293
3.701446 9.032267 -1.897397
3.678505 9.062768 -1.901203
3.643792 9.064339 -1.898959
3.616374 9.084023 -1.900532
3.584815 9.093352 -1.899958
3.552913 9.101750 -1.899214
3.521600 9.111605 -1.898795
3.493356 9.129435 -1.900059
3.462071 9.139364 -1.899700
3.432473 9.153760 -1.900289
3.399409 9.158874 -1.898974
3.372888 9.181669 -1.901345
3.339314 9.185307 -1.899769
3.309005 9.197858 -1.900059
3.277274 9.206448 -1.899553
3.247938 9.221785 -1.900460
3.211749 9.217549 -1.897358
3.183795 9.236879 -1.899128
3.159818 9.268064 -1.903351
3.125187 9.268110 -1.901198
3.091873 9.271871 -1.899832
3.059586 9.278599 -1.899098
3.029668 9.292510 -1.899856
3.000838 9.309886 -1.901341
2.964804 9.304824 -1.898266
2.936767 9.324799 -1.900321
2.903992 9.329792 -1.899344
2.874907 9.346667 -1.900807
2.843929 9.357492 -1.901058
2.810009 9.358547 -1.899348
2.781047 9.376113 -1.901010
2.747539 9.378366 -1.899588
2.718182 9.394791 -1.901058
2.684781 9.397247 -1.899723
2.656072 9.416170 -1.901738
2.619624 9.407561 -1.898215
2.588180 9.416700 -1.898297
2.561742 9.444306 -1.902120
2.526917 9.441090 -1.899755
2.495493 9.450435 -1.899941
2.466264 9.468234 -1.901846
2.433019 9.470666 -1.900686
2.401935 9.481467 -1.901226
2.369433 9.486669 -1.900666
2.339652 9.502844 -1.902324
2.304658 9.497779 -1.899753
2.272952 9.506083 -1.899879
2.243786 9.525191 -1.902183
2.209081 9.520782 -1.899813
2.178213 9.532800 -1.900743
2.143903 9.529665 -1.898674
2.113240 9.542673 -1.899844
2.083427 9.559771 -1.901846
2.048353 9.552661 -1.899055
2.017181 9.563593 -1.899873
1.988244 9.585434 -1.902877
1.954680 9.585111 -1.901501
1.924005 9.598958 -1.902957
1.891116 9.601829 -1.902259
1.854226 9.583896 -1.897464
1.825151 9.606208 -1.900659
1.789019 9.591290 -1.896510
1.758829 9.608037 -1.898645
1.726294 9.612149 -1.898303
1.696453 9.631489 -1.900988
1.662961 9.630229 -1.899628
1.628837 9.624961 -1.897501
1.598454 9.641810 -1.899756
1.566558 9.649826 -1.900289
1.533214 9.648847 -1.899074
1.501868 9.660450 -1.900356
1.468100 9.656424 -1.898585
1.436689 9.667840 -1.899872
1.405358 9.680120 -1.901348
1.370940 9.670993 -1.898642
1.338307 9.674089 -1.898358
1.305431 9.675315 -1.897729
1.274702 9.692698 -1.900290
1.241743 9.693371 -1.899595
1.210614 9.708531 -1.901760
1.178049 9.712477 -1.901748
1.143796 9.702103 -1.898955
1.112057 9.712837 -1.900316
1.078809 9.710424 -1.899125
1.045632 9.708286 -1.898011
1.012780 9.708905 -1.897457
0.981036 9.720306 -1.899032
0.948901 9.728270 -1.899956
0.916121 9.729712 -1.899627
0.884626 9.745203 -1.902061
0.851432 9.742220 -1.900911
0.819196 9.750167 -1.901915
0.784979 9.733991 -1.898236
0.752830 9.742931 -1.899476
0.720276 9.746981 -1.899784
0.687705 9.750935 -1.900095
0.654898 9.751547 -1.899776
0.622566 9.759430 -1.900894
0.589014 9.747780 -1.898230
0.557275 9.766294 -1.901460
0.523045 9.740513 -1.896089
0.490946 9.753374 -1.898261
0.459113 9.773499 -1.901868
0.425676 9.759716 -1.898897
0.393599 9.777186 -1.902029
0.360629 9.773396 -1.901046
0.327778 9.772131 -1.900575
0.294691 9.762539 -1.898507
0.262397 9.779860 -1.901693
0.229261 9.766012 -1.898841
0.196702 9.775977 -1.900639
0.163891 9.774651 -1.900264
0.130977 9.764658 -1.898225
0.098366 9.777835 -1.900712
0.065553 9.773801 -1.899874
0.032800 9.778942 -1.900842
0.000013 9.776765 -1.900408
-0.032780 9.780620 -1.901168
-0.065619 9.787425 -1.902523
-0.098269 9.770801 -1.899344
-0.130859 9.757805 -1.896893
-0.163934 9.778761 -1.901063
-0.196764 9.780363 -1.901492
-0.229664 9.784307 -1.902398
-0.262205 9.773675 -1.900491
-0.294798 9.766944 -1.899363
-0.327923 9.777233 -1.901567
-0.360154 9.761231 -1.898679
-0.393469 9.774599 -1.901525
-0.425626 9.759182 -1.898793
-0.458118 9.752873 -1.897854
-0.491231 9.759553 -1.899464
-0.524515 9.768357 -1.901509
-0.557159 9.764723 -1.901154
-0.589669 9.759048 -1.900424
-0.622726 9.762347 -1.901462
-0.654877 9.751615 -1.899788
-0.688491 9.762452 -1.902339
-0.719742 9.740103 -1.898443
-0.753819 9.756061 -1.902036
-0.785008 9.734671 -1.898368
-0.817575 9.731186 -1.898212
-0.850504 9.731900 -1.898897
-0.882861 9.726054 -1.898323
-0.916960 9.738905 -1.901421
-0.949043 9.729991 -1.900291
-0.980550 9.715747 -1.898141
-1.015637 9.736541 -1.902858
-1.046140 9.713245 -1.898980
-1.078964 9.712055 -1.899444
-1.111558 9.708705 -1.899507
-1.143683 9.701361 -1.898809
-1.177176 9.705490 -1.900379
-1.209784 9.702084 -1.900496
-1.242657 9.700711 -1.901032
-1.274109 9.688387 -1.899444
-1.306032 9.679961 -1.898640
-1.340401 9.689411 -1.901364
-1.371683 9.676419 -1.899706
-1.403434 9.667053 -1.898781
-1.434722 9.654778 -1.897304
-1.467527 9.652827 -1.897877
-1.499252 9.643797 -1.897079
-1.533439 9.650427 -1.899384
-1.563476 9.631000 -1.896581
-1.600348 9.653390 -1.902036
-1.631777 9.642488 -1.900956
-1.661731 9.623261 -1.898253
-1.696211 9.630260 -1.900745
-1.730185 9.633961 -1.902609
-1.760408 9.616809 -1.900377
-1.791644 9.605503 -1.899319
-1.822891 9.594448 -1.898331
-1.855126 9.588681 -1.898410
-1.889664 9.594589 -1.900824
-1.921944 9.588810 -1.900944
-1.954702 9.585347 -1.901547
-1.984409 9.567074 -1.899231
-2.017395 9.564734 -1.900098
-2.046973 9.546351 -1.897799
-2.080668 9.547234 -1.899351
-2.111264 9.533867 -1.898089
-2.146392 9.540847 -1.900901
-2.176648 9.526067 -1.899399
-2.209584 9.523066 -1.900268
-2.242355 9.519231 -1.900992
-2.275791 9.518068 -1.902273
-2.306638 9.506047 -1.901405
-2.335759 9.487139 -1.899179
-2.365701 9.471834 -1.897692
-2.401838 9.481189 -1.901169
-2.431631 9.465369 -1.899621
-2.466493 9.469218 -1.902043
-2.494928 9.448399 -1.899530
-2.526588 9.439964 -1.899527
-2.562888 9.448632 -1.902990
-2.589878 9.422976 -1.899561
-2.621151 9.413141 -1.899339
-2.651032 9.398398 -1.898147
-2.682285 9.388606 -1.897975
-2.717890 9.393875 -1.900872
-2.750651 9.389081 -1.901757
-2.778588 9.367912 -1.899346
-2.809085 9.355559 -1.898740
-2.847185 9.368295 -1.903252
-2.874000 9.343806 -1.900223
-2.899536 9.315563 -1.896446
-2.940068 9.335367 -1.902474
-2.970110 9.321560 -1.901679
-3.000488 9.308886 -1.901135
-3.030951 9.296529 -1.900676
-3.060962 9.282855 -1.899968
-3.088573 9.262055 -1.897820
-3.123358 9.262767 -1.900100
-3.154323 9.252026 -1.900056
-3.180783 9.228217 -1.897346
-3.210524 9.214111 -1.896648
-3.250416 9.228896 -1.901924
-3.278992 9.211349 -1.900563
-3.312206 9.206831 -1.901911
-3.336719 9.178243 -1.898306
-3.372128 9.179676 -1.900930
-3.402446 9.167131 -1.900684
-3.431513 9.151274 -1.899771
-3.463825 9.144069 -1.900676
-3.495217 9.134372 -1.901085
-3.524988 9.120441 -1.900635
-3.557709 9.114108 -1.901790
-3.582788 9.088282 -1.898897
-3.614502 9.079391 -1.899561
-3.648508 9.076138 -1.901429
-3.674614 9.053251 -1.899205
-3.704228 9.039124 -1.898836
-3.735268 9.028477 -1.899219
-3.768944 9.024106 -1.900947
-3.800167 9.013762 -1.901442
-3.831247 9.003039 -1.901879
-3.858190 8.982644 -1.900292
-3.888385 8.969888 -1.900341
-3.918437 8.956800 -1.900341
-3.941764 8.928475 -1.897125
-3.977898 8.929173 -1.900096
-4.005517 8.910677 -1.899007
-4.035674 8.897866 -1.899150
-4.066530 8.886573 -1.899639
-4.090487 8.860291 -1.896942
-4.125346 8.857638 -1.899325
-4.158768 8.851733 -1.901038
-4.186415 8.833503 -1.900126
-4.215812 8.819006 -1.900038
-4.246028 8.806215 -1.900339
-4.273126 8.786986 -1.899270
-4.302693 8.772874 -1.899327
-4.334877 8.764048 -1.900552
-4.365088 8.751172 -1.900923
-4.393529 8.734746 -1.900544
-4.417339 8.709219 -1.898202
-4.451002 8.703134 -1.900118
-4.478910 8.685743 -1.899589
-4.509732 8.673996 -1.900316
-4.540952 8.662953 -1.901221
-4.570283 8.648271 -1.901351
-4.589694 8.614955 -1.897399
-4.631186 8.623040 -1.902589
-4.648024 8.585213 -1.897671
-4.683508 8.581903 -1.900400
-4.706160 8.555073 -1.897941
-4.738619 8.546103 -1.899466
-4.777474 8.548468 -1.903541
-4.798978 8.519743 -1.900717
-4.824629 8.498520 -1.899580
-4.852264 8.480842 -1.899254
-4.885461 8.472833 -1.901118
-4.913052 8.455046 -1.900813
-4.939050 8.434559 -1.899919
-4.967459 8.418220 -1.899979
-4.997996 8.405453 -1.900870
-5.024438 8.385791 -1.900222
-5.049004 8.363065 -1.898898
-5.084156 8.357827 -1.901568
-5.107539 8.333212 -1.899853
-5.126684 8.301846 -1.896610
-5.160649 8.294509 -1.898877
-5.192352 8.283417 -1.900312
-5.224210 8.272476 -1.901810
-5.244703 8.243576 -1.899198
-5.275973 8.231655 -1.900516
-5.304448 8.215323 -1.900841
-5.330248 8.194857 -1.900230
-5.368971 8.194150 -1.904229
-5.389530 8.165672 -1.901800
-5.408615 8.135128 -1.898899
-5.435689 8.116693 -1.898839
-5.467469 8.105237 -1.900437
-5.494254 8.086330 -1.900313
-5.523273 8.070696 -1.900980
-5.546872 8.047156 -1.899805
-5.576135 8.031846 -1.900594
-5.594766 8.001282 -1.897789
-5.628094 7.991756 -1.899995
-5.650747 7.967045 -1.898614
-5.684654 7.958172 -1.901030
-5.708196 7.934747 -1.899996
-5.740917 7.924052 -1.902033
-5.762062 7.897370 -1.900255
-5.778778 7.864765 -1.897061
-5.822544 7.868900 -1.902757
-5.841127 7.838911 -1.900230
-5.870711 7.823726 -1.901310
-5.900305 7.808492 -1.902405
-5.918994 7.778865 -1.900011
-5.938442 7.750362 -1.897902
-5.976370 7.745930 -1.901713
-5.996920 7.718914 -1.900005
-6.017758 7.692362 -1.898426
-6.053586 7.684927 -1.901589
-6.066066 7.647880 -1.897444
-6.107232 7.646979 -1.902290
-6.121697 7.612608 -1.898835
-6.146969 7.591771 -1.898767
-6.176391 7.576029 -1.899999
-6.198374 7.551157 -1.898962
-6.231513 7.539837 -1.901359
-6.250115 7.510920 -1.899341
-6.277919 7.493093 -1.900145
-6.298588 7.466764 -1.898813
-6.326437 7.448959 -1.899669
-6.365151 7.443815 -1.903789
-6.374039 7.403807 -1.899011
-6.403564 7.387860 -1.900417
-6.426136 7.363871 -1.899778
-6.446459 7.337356 -1.898503
-6.473217 7.318180 -1.899146
-6.504468 7.304016 -1.901120
-6.522971 7.275531 -1.899387
-6.547641 7.253967 -1.899478
-6.573152 7.233323 -1.899833
-6.598763 7.212770 -1.900235
-6.610691 7.177339 -1.896729
-6.645825 7.167113 -1.899904
-6.662509 7.136961 -1.897822
-6.694504 7.123205 -1.900122
-6.710443 7.092363 -1.897886
-6.745509 7.081714 -1.901078
-6.752649 7.041782 -1.896425
-6.789306 7.032657 -1.900088
-6.809235 7.006138 -1.899080
-6.832624 6.983204 -1.899063
-6.860259 6.964581 -1.900243
-6.884981 6.942962 -1.900632
-6.903156 6.914765 -1.899238
-6.939106 6.904323 -1.902750
-6.957363 6.876222 -1.901423
-6.972824 6.845440 -1.899366
-7.002529 6.828647 -1.901210
-7.015606 6.795659 -1.898564
-7.045643 6.779114 -1.900530
-7.066393 6.753600 -1.900009
-7.094235 6.734842 -1.901413
-7.110705 6.705294 -1.899791
-7.137680 6.685662 -1.900998
-7.149749 6.652103 -1.898262
-7.184854 6.639962 -1.901661
-7.197032 6.606616 -1.899011
-7.239132 6.600675 -1.904269
-7.240726 6.557804 -1.898894
-7.262536 6.533367 -1.898858
-7.294052 6.517605 -1.901374
-7.320341 6.497087 -1.902538
-7.327846 6.459955 -1.898848
-7.356966 6.441920 -1.900787
-7.374104 6.413373 -1.899648
-7.394012 6.387271 -1.899249
-7.433122 6.377662 -1.903792
-7.439611 6.340047 -1.899999
-7.450229 6.306098 -1.897300
-7.481264 6.289434 -1.899823
-7.519948 6.279045 -1.904289
-7.525677 6.241123 -1.900431
-7.551512 6.219935 -1.901678
-7.554465 6.179972 -1.897193
-7.576912 6.156045 -1.897636
-7.602818 6.134890 -1.898962
-7.637689 6.120861 -1.902535
-7.648204 6.087288 -1.900059
-7.668112 6.061249 -1.899946
-7.693379 6.039421 -1.901178
-7.703910 6.006050 -1.898794
-7.722613 5.979109 -1.898452
-7.742190 5.952856 -1.898347
-7.759224 5.924664 -1.897643
-7.791609 5.908142 -1.900708
-7.817037 5.886250 -1.902086
-7.830439 5.855304 -1.900559
-7.854176 5.832098 -1.901564
-7.867710 5.801325 -1.900120
-7.890513 5.777401 -1.900939
-7.901421 5.744792 -1.898916
-7.929474 5.724648 -1.901034
-7.953070 5.701217 -1.902098
-7.969449 5.672604 -1.901455
-7.980038 5.639926 -1.899459
-8.001667 5.615078 -1.900116
-8.014096 5.583793 -1.898611
-8.047849 5.567321 -1.902174
-8.055301 5.532636 -1.899541
-8.076993 5.507771 -1.900291
-8.092700 5.478821 -1.899653
-8.106733 5.448773 -1.898649
-8.130552 5.425296 -1.899956
-8.149604 5.398607 -1.900168
-8.166469 5.370470 -1.899891
-8.182285 5.341660 -1.899393
-8.196790 5.312019 -1.898615
-8.228770 5.293653 -1.901901
-8.245792 5.265598 -1.901744
-8.256650 5.233644 -1.900191
-8.282940 5.211461 -1.902209
-8.297988 5.182175 -1.901664
-8.313569 5.153241 -1.901264
-8.323114 5.120610 -1.899510
-8.335845 5.089994 -1.898510
-8.368003 5.071192 -1.901951
-8.387270 5.044497 -1.902475
-8.399424 5.013535 -1.901409
-8.408671 4.980894 -1.899711
-8.421867 4.950641 -1.898932
-8.437978 4.922120 -1.898832
-8.461339 4.897798 -1.900383
-8.463321 4.861135 -1.897157
-8.484116 4.835321 -1.898174
-8.503826 4.808854 -1.898966
-8.533415 4.787898 -1.901978
-8.548597 4.758801 -1.901795
-8.559178 4.727171 -1.900612
-8.575156 4.698545 -1.900651
-8.582876 4.665426 -1.898885
-8.596726 4.635683 -1.898499
-8.611626 4.606515 -1.898368
-8.641316 4.585201 -1.901514
-8.653697 4.554653 -1.900867
-8.674172 4.528356 -1.902019
-8.684476 4.496746 -1.900961
-8.700495 4.468112 -1.901178
-8.714513 4.438451 -1.900979
-8.717313 4.403130 -1.898358
-8.746717 4.381237 -1.901552
-8.755440 4.348946 -1.900268
-8.772627 4.320874 -1.900843
-8.788832 4.292300 -1.901225
-8.784695 4.253860 -1.897234
-8.808349 4.228916 -1.899270
-8.828678 4.202311 -1.900605
-8.834118 4.168628 -1.898757
-8.855946 4.142681 -1.900452
-8.874840 4.115309 -1.901535
-8.881496 4.082271 -1.900018
-8.895092 4.052451 -1.900009
-8.904461 4.020722 -1.899120
-8.925150 3.994093 -1.900666
-8.939535 3.964609 -1.900888
-8.955950 3.936009 -1.901561
-8.972168 3.907297 -1.902212
-8.971448 3.871251 -1.899297
-8.980078 3.839311 -1.898388
-8.989586 3.807778 -1.897689
-9.015594 3.783193 -1.900491
-9.027091 3.752472 -1.900252
-9.033298 3.719581 -1.898922
-9.053558 3.692471 -1.900568
-9.047937 3.654844 -1.896805
-9.081011 3.632837 -1.901174
-9.078238 3.596466 -1.898059
-9.103485 3.571202 -1.900823
-9.099298 3.534402 -1.897464
-9.121173 3.507749 -1.899562
-9.141114 3.480282 -1.901274
-9.154654 3.450338 -1.901674
-9.163604 3.418667 -1.901141
-9.161369 3.382886 -1.898314
-9.174787 3.352928 -1.898754
-9.187919 3.322850 -1.899155
-9.207961 3.295230 -1.901004
-9.227131 3.267233 -1.902689
-9.220765 3.230228 -1.899132
-9.232733 3.199707 -1.899377
-9.241919 3.168222 -1.899071
-9.266021 3.141806 -1.901848
-9.264258 3.106615 -1.899338
-9.277626 3.076533 -1.899953
-9.288451 3.045594 -1.900068
-9.296587 3.013778 -1.899655
-9.303273 2.981513 -1.898968
-9.325411 2.954167 -1.901454
-9.329523 2.921087 -1.900285
-9.336344 2.888886 -1.899690
-9.355114 2.860360 -1.901547
-9.360728 2.827793 -1.900751
-9.384566 2.800693 -1.903674
-9.374440 2.763475 -1.899729
-9.395904 2.735595 -1.902210
-9.401403 2.703037 -1.901478
-9.413670 2.672425 -1.902136
-9.399376 2.634345 -1.897452
-9.430599 2.609025 -1.901978
-9.434316 2.576032 -1.900975
-9.435526 2.542399 -1.899491
-9.441687 2.510135 -1.899026
-9.467091 2.482934 -1.902451
-9.469464 2.449653 -1.901267
-9.472566 2.416600 -1.900252
-9.477207 2.383969 -1.899569
-9.489504 2.353261 -1.900441
-9.504635 2.323214 -1.901901
-9.498169 2.287913 -1.899062
-9.523550 2.260270 -1.902610
-9.522055 2.226218 -1.900810
-9.532550 2.194990 -1.901425
-9.534719 2.161852 -1.900401
-9.544912 2.130542 -1.900998
-9.556469 2.099509 -1.901887
-9.563551 2.067477 -1.901906
-9.568473 2.034984 -1.901518
-9.565989 2.000956 -1.899680
-9.571914 1.968722 -1.899535
-9.586771 1.938298 -1.901183
-9.586188 1.904748 -1.899791
-9.608290 1.875675 -1.902914
-9.593076 1.839337 -1.898669
-9.603403 1.807956 -1.899502
-9.621537 1.777989 -1.901899
-9.610387 1.742627 -1.898530
-9.621563 1.711353 -1.899593
-9.634192 1.680296 -1.900964
-9.630527 1.646404 -1.899141
-9.660988 1.618292 -1.904067
-9.641355 1.581789 -1.899141
-9.668839 1.553026 -1.903519
-9.658998 1.518243 -1.900568
-9.660469 1.485302 -1.899867
-9.654998 1.451341 -1.897824
-9.681811 1.422193 -1.902146
-9.668982 1.387207 -1.898701
-9.675400 1.355036 -1.899059
-9.688313 1.323740 -1.900712
-9.704830 1.292865 -1.903091
-9.680462 1.256601 -1.897475
-9.702109 1.226348 -1.900902
-9.716542 1.195088 -1.902934
-9.706141 1.160786 -1.900124
-9.715892 1.128924 -1.901281
-9.714141 1.095724 -1.900209
-9.720922 1.063494 -1.900827
-9.709258 1.029287 -1.897861
-9.731358 0.998647 -1.901515
-9.724224 0.964979 -1.899479
-9.740855 0.933660 -1.902105
-9.727527 0.899478 -1.898903
-9.744367 0.868095 -1.901611
-9.742566 0.835020 -1.900703
-9.740671 0.801969 -1.899798
-9.755608 0.770277 -1.902197
-9.749846 0.736937 -1.900581
-9.762609 0.704991 -1.902598
-9.752322 0.671388 -1.900144
-9.750660 0.638433 -1.899392
-9.742289 0.605088 -1.897355
-9.753795 0.572981 -1.899211
-9.766478 0.540874 -1.901317
-9.777369 0.508601 -1.903095
-9.776919 0.475714 -1.902686
-9.757441 0.441979 -1.898596
-9.764551 0.409500 -1.899702
-9.764293 0.376698 -1.899395
-9.770618 0.344139 -1.900391
-9.775400 0.311495 -1.901107
-9.769348 0.278518 -1.899738
-9.760822 0.245525 -1.897909
-9.764693 0.212865 -1.898512
-9.762755 0.180076 -1.898007
-9.777119 0.147551 -1.900693
-9.783064 0.114834 -1.901763
-9.779963 0.082004 -1.901096
-9.784504 0.049235 -1.901936
-9.761236 0.016390 -1.897392
-9.755109 0.000026 -1.896198
-11.988386 -0.020129 -1.898774
-11.994848 -0.060357 -1.899819
-11.997412 -0.100597 -1.900267
-11.996875 -0.140820 -1.900246
-12.001927 -0.181127 -1.901132
-11.996255 -0.221274 -1.900340
-11.990060 -0.261376 -1.899487
-11.977735 -0.301289 -1.897684
-11.973816 -0.341365 -1.897234
-11.987332 -0.381979 -1.899568
-11.988466 -0.422255 -1.899961
-11.979786 -0.462170 -1.898820
-11.997092 -0.503127 -1.901820
-11.975414 -0.542446 -1.898661
-11.972205 -0.582530 -1.898451
-11.981173 -0.623239 -1.900194
-11.993443 -0.664205 -1.902483
-11.985265 -0.704067 -1.901549
-11.973824 -0.743688 -1.900119
-11.970435 -0.783775 -1.899988
-11.960986 -0.823441 -1.898915
-11.985657 -0.865525 -1.903282
-11.965102 -0.904376 -1.900489
-11.954148 -0.943868 -1.899241
-11.950253 -0.983888 -1.899135
-11.933883 -1.022835 -1.897068
-11.945906 -1.064224 -1.899536
-11.947066 -1.104713 -1.900299
-11.934576 -1.143928 -1.898911
-11.942956 -1.185154 -1.900866
-11.932552 -1.224537 -1.899853
-11.930155 -1.264726 -1.900136
-11.923195 -1.304428 -1.899714
-11.912246 -1.343663 -1.898676
-11.903103 -1.383064 -1.897947
-11.908601 -1.424185 -1.899575
-11.919933 -1.466094 -1.902156
-11.891334 -1.503066 -1.898385
-11.908746 -1.545850 -1.901982
-11.895796 -1.584743 -1.900751
-11.891567 -1.624776 -1.900936
-11.879991 -1.663788 -1.899966
-11.869678 -1.702940 -1.899219
-11.875789 -1.744474 -1.901122
-11.867284 -1.783892 -1.900707
-11.853902 -1.822543 -1.899532
-11.851621 -1.862889 -1.900157
-11.839120 -1.901621 -1.899164
-11.846700 -1.943605 -1.901415
-11.833380 -1.982185 -1.900333
-11.834263 -2.023148 -1.901553
-11.807706 -2.059377 -1.898385
-11.808543 -2.100343 -1.899641
-11.817594 -2.142853 -1.902242
-11.803056 -2.181117 -1.901068
-11.807205 -2.222849 -1.902926
-11.775866 -2.257856 -1.899085
-11.776196 -2.298881 -1.900371
-11.760832 -2.336843 -1.899145
-11.747483 -2.375161 -1.898265
-11.744205 -2.415512 -1.899033
-11.729563 -2.453519 -1.897985
-11.738594 -2.496517 -1.900790
-11.723980 -2.534524 -1.899789
-11.741245 -2.579493 -1.903977
-11.691489 -2.609684 -1.897317
-11.699606 -2.652708 -1.900067
-11.706882 -2.695658 -1.902706
-11.683337 -2.731517 -1.900357
-11.670952 -2.769924 -1.899842
-11.675841 -2.812469 -1.902162
-11.654775 -2.848772 -1.900276
-11.639785 -2.886500 -1.899399
-11.633343 -2.926340 -1.899938
-11.621451 -2.964814 -1.899609
-11.609792 -3.003334 -1.899338
-11.605664 -3.043818 -1.900322
-11.593586 -3.082232 -1.900025
-11.596022 -3.124544 -1.902131
-11.581810 -3.162404 -1.901528
-11.563087 -3.198989 -1.900204
-11.558420 -3.239456 -1.901212
-11.538296 -3.275580 -1.899697
-11.534963 -3.316465 -1.900969
-11.520415 -3.354142 -1.900414
-11.515477 -3.394628 -1.901466
-11.486586 -3.428011 -1.898583
-11.485588 -3.469695 -1.900330
-11.471344 -3.507406 -1.899908
-11.467639 -3.548359 -1.901254
-11.465642 -3.589908 -1.902908
-11.446625 -3.626139 -1.901759
-11.412647 -3.657525 -1.898141
-11.411162 -3.699284 -1.899946
-11.404611 -3.739462 -1.900932
-11.386326 -3.775794 -1.899984
-11.374865 -3.814372 -1.900195
-11.351315 -3.848861 -1.898405
-11.347068 -3.889888 -1.899866
-11.331010 -3.926888 -1.899371
-11.330842 -3.969433 -1.901563
-11.303588 -4.002485 -1.899230
-11.291495 -4.040859 -1.899464
-11.275578 -4.077861 -1.899076
-11.250670 -4.111560 -1.897192
-11.260281 -4.157920 -1.901153
-11.244340 -4.194928 -1.900826
-11.217319 -4.227746 -1.898643
-11.220373 -4.271915 -1.901574
-11.193749 -4.304804 -1.899497
-11.178889 -4.342169 -1.899435
-11.165849 -4.380246 -1.899704
-11.162727 -4.422265 -1.901685
-11.147128 -4.459383 -1.901564
-11.118583 -4.491265 -1.899253
-11.106476 -4.529748 -1.899768
-11.087478 -4.565417 -1.899126
-11.067096 -4.600482 -1.898266
-11.063000 -4.642342 -1.900223
-11.052478 -4.681571 -1.901101
-11.021365 -4.712037 -1.898456
-11.016891 -4.753876 -1.900420
-11.007310 -4.793582 -1.901530
-10.978543 -4.824909 -1.899344
-10.963336 -4.862148 -1.899523
-10.941283 -4.896333 -1.898535
-10.937316 -4.938639 -1.900710
-10.917885 -4.974000 -1.900220
-10.899352 -5.009753 -1.899907
-10.879740 -5.044991 -1.899427
-10.870093 -5.084870 -1.900708
-10.863710 -5.126348 -1.902587
-10.827752 -5.153838 -1.899305
-10.804950 -5.187490 -1.898345
-10.784928 -5.222444 -1.897893
-10.767203 -5.258499 -1.897866
-10.761939 -5.300691 -1.900060
-10.735235 -5.332337 -1.898491
-10.738254 -5.378798 -1.902204
-10.717235 -5.413294 -1.901685
-10.687537 -5.443346 -1.899643
-10.668379 -5.478713 -1.899492
-10.661440 -5.520401 -1.901542
-10.634313 -5.551648 -1.900012
-10.623130 -5.591214 -1.901353
-10.592325 -5.620433 -1.899202
-10.565636 -5.651751 -1.897803
-10.562037 -5.695453 -1.900576
-10.541037 -5.729831 -1.900244
-10.531690 -5.770578 -1.902036
-10.489544 -5.793298 -1.897922
-10.482423 -5.835316 -1.900162
-10.468455 -5.873602 -1.901189
-10.445491 -5.906852 -1.900605
-10.422465 -5.940038 -1.900028
-10.401036 -5.974113 -1.899763
-10.383597 -6.010487 -1.900248
-10.360557 -6.043616 -1.899729
-10.338854 -6.077507 -1.899475
-10.314800 -6.109993 -1.898809
-10.308166 -6.152845 -1.901374
-10.264976 -6.173837 -1.897215
-10.253985 -6.214139 -1.899024
-10.229730 -6.246429 -1.898400
-10.209637 -6.281250 -1.898569
-10.192132 -6.317686 -1.899242
-10.182136 -6.358844 -1.901341
-10.152120 -6.387512 -1.899725
-10.119496 -6.414446 -1.897634
-10.115925 -6.459828 -1.901015
-10.078580 -6.483654 -1.898072
-10.062747 -6.521273 -1.899197
-10.035316 -6.551378 -1.898155
-10.026650 -6.593771 -1.900687
-10.001538 -6.625398 -1.900126
-9.980517 -6.659728 -1.900364
-9.949877 -6.687604 -1.898789
-9.938732 -6.728600 -1.900957
-9.920203 -6.764672 -1.901740
-9.883640 -6.788397 -1.899083
-9.867365 -6.826022 -1.900343
-9.842147 -6.857481 -1.899904
-9.825196 -6.894719 -1.901083
-9.788082 -6.917769 -1.898379
-9.778442 -6.960235 -1.901025
-9.755737 -6.993473 -1.901159
-9.726141 -7.021743 -1.899968
-9.700473 -7.052808 -1.899563
-9.684536 -7.090978 -1.901087
-9.651676 -7.116749 -1.899310
-9.621748 -7.144604 -1.898124
-9.602632 -7.180482 -1.899091
-9.568356 -7.204997 -1.897079
-9.557537 -7.247192 -1.899741
-9.538715 -7.283419 -1.900843
-9.509774 -7.311924 -1.899951
-9.489401 -7.347016 -1.900791
-9.456315 -7.372243 -1.899104
-9.427548 -7.400770 -1.898300
-9.421583 -7.447278 -1.902116
-9.392759 -7.475799 -1.901346
-9.361296 -7.502163 -1.900058
-9.329169 -7.527924 -1.898650
-9.313648 -7.567099 -1.900644
-9.278417 -7.590259 -1.898636
-9.252224 -7.620756 -1.898495
-9.237501 -7.660757 -1.900733
-9.216125 -7.695326 -1.901633
-9.181612 -7.718903 -1.899841
-9.165124 -7.757637 -1.901801
-9.133341 -7.783446 -1.900610
-9.106384 -7.813331 -1.900441
-9.070313 -7.835333 -1.898385
-9.049480 -7.870474 -1.899538
-9.027221 -7.904430 -1.900417
-9.000961 -7.934911 -1.900479
-8.958746 -7.951234 -1.897184
-8.951567 -7.998678 -1.901332
-8.915912 -8.020741 -1.899460
-8.890165 -8.051673 -1.899716
-8.862970 -8.081298 -1.899684
-8.837058 -8.112101 -1.899949
-8.817466 -8.148759 -1.901600
-8.788399 -8.176698 -1.901233
-8.755540 -8.201065 -1.900062
-8.718943 -8.221839 -1.898092
-8.696513 -8.255949 -1.899224
-8.675496 -8.291475 -1.900695
-8.644648 -8.317631 -1.900036
-8.614254 -8.344187 -1.899494
-8.589308 -8.376024 -1.900175
-8.563282 -8.406842 -1.900642
-8.535268 -8.435724 -1.900691
-8.498321 -8.455722 -1.898766
-8.478458 -8.492718 -1.900680
-8.445617 -8.516741 -1.899708
-8.419625 -8.547661 -1.900298
-8.401637 -8.586795 -1.902725
-8.359667 -8.601404 -1.899740
-8.330391 -8.628980 -1.899651
-8.309443 -8.665235 -1.901489
-8.271977 -8.684263 -1.899568
-8.250785 -8.720373 -1.901405
-8.209403 -8.735115 -1.898607
-8.189752 -8.772962 -1.900854
-8.153101 -8.792618 -1.899179
-8.136636 -8.834084 -1.902232
-8.101584 -8.855427 -1.900968
-8.069485 -8.879939 -1.900412
-8.037989 -8.905086 -1.900015
-7.993369 -8.915569 -1.896523
-7.973167 -8.953252 -1.898842
-7.944891 -8.981955 -1.899269
-7.922400 -9.017271 -1.901109
-7.880366 -9.030310 -1.898277
-7.859840 -9.067982 -1.900646
-7.830188 -9.095207 -1.900839
-7.805556 -9.128317 -1.902278
-7.763063 -9.140491 -1.899381
-7.731651 -9.165612 -1.899203
-7.697676 -9.187662 -1.898414
-7.667371 -9.214071 -1.898548
-7.648217 -9.253983 -1.901478
-7.609601 -9.270382 -1.899594
-7.582134 -9.300328 -1.900511
-7.553396 -9.328770 -1.901137
-7.520661 -9.352283 -1.900779
-7.491073 -9.379712 -1.901238
-7.457685 -9.402383 -1.900755
-7.427008 -9.428464 -1.900982
-7.388677 -9.444777 -1.899266
-7.370176 -9.486496 -1.902676
-7.329913 -9.500247 -1.900494
-7.288365 -9.512170 -1.897980
-7.260614 -9.542048 -1.899074
-7.241181 -9.583014 -1.902384
-7.191167 -9.583460 -1.897675
-7.164481 -9.614879 -1.899129
-7.136874 -9.645157 -1.900373
-7.101679 -9.665198 -1.899620
-7.064052 -9.681852 -1.898227
-7.044608 -9.723506 -1.901752
-7.005034 -9.737432 -1.899872
-6.970296 -9.757993 -1.899313
-6.941397 -9.786746 -1.900369
-6.906807 -9.807497 -1.899891
-6.858836 -9.809075 -1.895731
-6.818337 -9.821111 -1.893628
-6.760846 -9.808335 -1.886784
-6.708781 -9.802979 -1.881416
-6.656084 -9.796288 -1.875838
-6.619634 -9.813261 -1.874828
-6.569170 -9.809231 -1.869839
-6.520651 -9.807748 -1.865379
-6.473505 -9.808002 -1.861288
-6.430531 -9.814307 -1.858383
-6.390116 -9.824323 -1.856212
-6.333606 -9.809242 -1.849340
-6.285198 -9.806265 -1.844796
-6.232804 -9.796664 -1.839048
-6.195342 -9.810253 -1.837689
-6.151911 -9.814212 -1.834557
-6.108382 -9.817763 -1.831382
-6.057025 -9.808384 -1.825834
-6.011747 -9.808473 -1.822088
-5.966059 -9.807585 -1.818197
-5.919583 -9.805074 -1.814041
-5.876042 -9.807118 -1.810765
-5.831498 -9.807206 -1.807161
-5.777711 -9.791331 -1.800656
-5.744559 -9.810151 -1.800565
-5.695471 -9.801538 -1.795469
-5.658381 -9.813303 -1.794138
-5.603937 -9.794624 -1.787278
-5.569561 -9.810706 -1.786795
-5.525944 -9.810344 -1.783345
-5.481891 -9.808901 -1.779731
-5.429330 -9.791800 -1.773316
-5.397990 -9.812713 -1.773816
-5.351515 -9.805937 -1.769337
-5.306266 -9.801029 -1.765232
-5.269058 -9.810727 -1.763787
-5.226009 -9.809331 -1.760376
-5.186662 -9.814633 -1.758197
-5.137137 -9.800320 -1.752537
-5.096800 -9.803161 -1.749979
-5.062008 -9.816519 -1.749324
-5.024024 -9.823574 -1.747570
-4.982824 -9.824129 -1.744687
-4.932936 -9.807138 -1.738723
-4.887764 -9.799037 -1.734371
-4.850867 -9.807252 -1.732937
-4.813730 -9.814841 -1.731416
-4.771915 -9.812663 -1.728200
-4.726635 -9.802989 -1.723695
-4.692433 -9.816044 -1.723215
-4.641629 -9.794023 -1.716607
-4.607585 -9.807019 -1.716168
-4.561969 -9.795124 -1.711400
-4.523262 -9.797713 -1.709193
-4.495783 -9.824618 -1.711247
-4.443134 -9.796237 -1.703700
-4.409629 -9.809667 -1.703454
-4.371343 -9.812338 -1.701363
-4.333592 -9.816005 -1.699470
-4.287805 -9.801104 -1.694392
-4.248975 -9.801711 -1.692025
-4.213823 -9.810630 -1.691116
-4.169014 -9.796758 -1.686306
-4.140782 -9.821680 -1.688196
-4.088155 -9.788404 -1.680111
-4.057908 -9.808327 -1.681186
-4.018963 -9.807148 -1.678665
-3.982476 -9.811738 -1.677156
-3.942424 -9.807293 -1.674127
-3.902954 -9.803964 -1.671315
-3.867119 -9.809530 -1.670045
-3.825677 -9.800586 -1.666329
-3.790156 -9.806529 -1.665169
-3.751885 -9.805147 -1.662789
-3.718722 -9.816965 -1.662670
-3.678519 -9.809998 -1.659391
-3.639777 -9.806566 -1.656737
-3.598894 -9.796985 -1.653071
-3.567135 -9.812043 -1.653584
-3.526399 -9.802217 -1.649927
-3.489632 -9.803081 -1.648093
-3.453172 -9.804583 -1.646390
-3.418119 -9.809904 -1.645350
-3.380061 -9.806374 -1.642848
-3.340804 -9.798997 -1.639727
-3.304998 -9.801446 -1.638273
-3.271036 -9.809231 -1.637732
-3.232019 -9.801613 -1.634641
-3.197743 -9.808116 -1.633929
-3.159056 -9.800838 -1.630942
-3.120105 -9.792314 -1.627774
-3.085315 -9.796555 -1.626750
-3.048558 -9.794336 -1.624676
-3.013456 -9.797199 -1.623465
-2.982180 -9.812476 -1.624331
-2.943876 -9.804475 -1.621363
-2.906190 -9.798120 -1.618692
-2.875842 -9.816408 -1.620111
-2.840196 -9.816604 -1.618563
-2.801727 -9.806680 -1.615369
-2.767977 -9.812989 -1.614870
-2.734150 -9.818948 -1.614333
-2.696017 -9.809151 -1.611227
-2.661309 -9.811482 -1.610135
-2.627563 -9.817230 -1.609624
-2.586011 -9.793334 -1.604275
-2.552406 -9.799047 -1.603800
-2.518770 -9.804566 -1.603312
-2.483433 -9.803286 -1.601732
-2.447655 -9.799961 -1.599839
-2.410580 -9.791040 -1.597055
-2.383677 -9.823536 -1.601042
-2.344509 -9.805469 -1.596808
-2.309410 -9.803893 -1.595281
-2.278998 -9.822232 -1.597013
-2.236673 -9.788767 -1.590343
-2.205491 -9.803546 -1.591534
-2.171148 -9.804289 -1.590464
-2.138759 -9.813785 -1.590832
-2.100576 -9.796335 -1.586853
-2.068098 -9.805122 -1.587144
-2.032595 -9.799382 -1.585103
-2.000399 -9.809437 -1.585636
-1.963089 -9.794088 -1.582082
-1.933881 -9.819099 -1.585066
-1.895217 -9.795904 -1.580287
-1.862775 -9.804376 -1.580637
-1.825879 -9.789044 -1.577170
-1.795358 -9.807733 -1.579202
-1.760156 -9.800841 -1.577133
-1.728427 -9.813170 -1.578176
-1.693438 -9.806876 -1.576241
-1.656746 -9.790037 -1.572633
-1.624555 -9.799408 -1.573255
-1.589618 -9.792038 -1.571207
-1.557723 -9.803256 -1.572160
-1.523076 -9.797039 -1.570336
-1.490335 -9.802850 -1.570457
-1.456973 -9.804515 -1.569932
-1.422189 -9.796241 -1.567835
-1.387619 -9.788839 -1.565897
-1.355309 -9.797183 -1.566496
-1.322762 -9.803957 -1.566862
-1.290738 -9.814830 -1.567899
-1.256993 -9.812621 -1.566864
-1.220879 -9.791062 -1.562759
-1.188913 -9.802263 -1.563902
-1.156509 -9.810163 -1.564535
-1.121923 -9.799241 -1.562184
-1.090156 -9.812795 -1.563753
-1.056220 -9.806841 -1.562231
-1.024024 -9.816945 -1.563285
-0.989717 -9.806575 -1.561097
-0.955781 -9.799070 -1.559383
-0.924185 -9.815646 -1.561519
-0.889647 -9.800809 -1.558675
-0.857253 -9.809124 -1.559532
-0.822199 -9.786222 -1.555444
-0.790267 -9.799892 -1.557187
-0.756637 -9.792534 -1.555606
-0.724730 -9.807607 -1.557605
-0.692474 -9.818932 -1.559026
-0.657127 -9.785119 -1.553299
-0.625167 -9.800613 -1.555417
-0.592177 -9.800563 -1.555085
-0.558893 -9.795114 -1.553915
-0.526381 -9.803118 -1.554896
-0.493542 -9.805466 -1.554997
-0.460168 -9.796525 -1.553326
-0.427663 -9.805880 -1.554573
-0.394125 -9.790894 -1.551979
-0.362122 -9.814553 -1.555528
-0.328766 -9.802387 -1.553416
-0.295609 -9.793815 -1.551892
-0.263135 -9.808360 -1.554048
-0.229972 -9.797436 -1.552186
-0.197149 -9.799501 -1.552400
-0.164328 -9.802263 -1.552742
-0.131425 -9.800001 -1.552305
-0.098558 -9.799445 -1.552156
-0.065807 -9.815452 -1.554647
-0.032817 -9.791672 -1.550855
0.000013 -9.803075 -1.552652
0.032850 -9.793725 -1.551180
0.065809 -9.811899 -1.554085
0.098588 -9.799932 -1.552233
0.131362 -9.793344 -1.551250
0.164383 -9.803958 -1.553010
0.197175 -9.799484 -1.552398
0.229933 -9.794670 -1.551748
0.262911 -9.799018 -1.552568
0.296262 -9.814611 -1.555187
0.329035 -9.809616 -1.554562
0.361752 -9.803821 -1.553827
0.394564 -9.801166 -1.553607
0.427094 -9.792241 -1.552411
0.460831 -9.810076 -1.555474
0.493232 -9.798792 -1.553939
0.526005 -9.795630 -1.553708
0.559182 -9.799714 -1.554645
0.591723 -9.792624 -1.553826
0.625199 -9.800718 -1.555434
0.658399 -9.803681 -1.556246
0.691292 -9.801797 -1.556306
0.722991 -9.783720 -1.553812
0.757466 -9.802926 -1.557257
0.790045 -9.796813 -1.556698
0.824143 -9.809051 -1.559072
0.856874 -9.804494 -1.558796
0.888284 -9.785506 -1.556242
0.921046 -9.782025 -1.556171
0.954809 -9.788832 -1.557754
0.989229 -9.801482 -1.560286
1.021361 -9.791167 -1.559181
1.054618 -9.791724 -1.559824
1.088938 -9.801600 -1.561970
1.121642 -9.796559 -1.561757
1.156862 -9.812932 -1.564977
1.189601 -9.807711 -1.564771
1.221105 -9.792665 -1.563015
1.256598 -9.809334 -1.566339
1.287646 -9.791120 -1.564112
1.322333 -9.800581 -1.566322
1.354723 -9.792750 -1.565788
1.388111 -9.792124 -1.566423
1.420011 -9.781051 -1.565405
1.455923 -9.797271 -1.568773
1.489613 -9.797924 -1.569669
1.522199 -9.791228 -1.569405
1.558272 -9.806546 -1.572689
1.592746 -9.811141 -1.574273
1.625692 -9.806104 -1.574331
1.656991 -9.791327 -1.572841
1.694619 -9.813560 -1.577317
1.726755 -9.803523 -1.576625
1.759080 -9.794704 -1.576146
1.793430 -9.797053 -1.577483
1.829355 -9.807539 -1.580150
1.862468 -9.802613 -1.580354
1.894140 -9.790195 -1.579367
1.927511 -9.786620 -1.579824
1.962316 -9.790092 -1.581437
1.997995 -9.797511 -1.583709
2.032671 -9.799622 -1.585143
2.066329 -9.796608 -1.585767
2.102921 -9.807147 -1.588606
2.133920 -9.791455 -1.587214
2.167441 -9.787428 -1.587730
2.203894 -9.796329 -1.590364
2.237005 -9.790101 -1.590561
2.276876 -9.812970 -1.595508
2.311603 -9.813087 -1.596778
2.342488 -9.796901 -1.595413
2.375981 -9.791707 -1.595856
2.407109 -9.776829 -1.594738
2.445881 -9.792748 -1.598663
2.484420 -9.807069 -1.602351
2.517767 -9.800554 -1.602657
2.549305 -9.787036 -1.601835
2.586661 -9.795690 -1.604662
2.620629 -9.791220 -1.605360
2.659829 -9.805924 -1.609224
2.691422 -9.792333 -1.608466
2.729998 -9.803936 -1.611866
2.764195 -9.799483 -1.612649
2.800458 -9.802141 -1.614622
2.833488 -9.793321 -1.614725
2.870662 -9.798631 -1.617178
2.906681 -9.799678 -1.618951
2.938804 -9.787491 -1.618556
2.975238 -9.789543 -1.620536
3.007916 -9.779097 -1.620467
3.049716 -9.797965 -1.625279
3.087507 -9.803425 -1.627892
3.121132 -9.795446 -1.628296
3.160245 -9.804436 -1.631543
3.190968 -9.787247 -1.630453
3.225544 -9.781887 -1.631353
3.265628 -9.792925 -1.635011
3.301244 -9.790226 -1.636399
3.337599 -9.789513 -1.638141
3.373473 -9.787174 -1.639633
3.412545 -9.793823 -1.642655
3.446897 -9.786683 -1.643386
3.491499 -9.808242 -1.648963
3.518727 -9.780810 -1.646325
3.560802 -9.794544 -1.650637
3.597993 -9.794451 -1.652645
3.635950 -9.796175 -1.654984
3.672790 -9.794639 -1.656795
3.710635 -9.795539 -1.659042
3.751484 -9.804021 -1.662600
3.781003 -9.782768 -1.661136
3.825340 -9.799645 -1.666171
3.863046 -9.799122 -1.668275
3.899101 -9.794208 -1.669654
3.934788 -9.788221 -1.670873
3.969745 -9.780299 -1.671784
4.013069 -9.792690 -1.676192
4.055252 -9.801833 -1.680075
4.090973 -9.795079 -1.681259
4.133047 -9.803262 -1.685032
4.165131 -9.787559 -1.684724
4.207675 -9.796244 -1.688638
4.241817 -9.785127 -1.689164
4.290863 -9.808021 -1.695590
4.318224 -9.781125 -1.693434
4.362151 -9.791635 -1.697776
4.395292 -9.777703 -1.697906
4.440025 -9.789312 -1.702497
4.476161 -9.781669 -1.703768
4.520294 -9.791216 -1.708061
4.560167 -9.791187 -1.710714
4.595014 -9.780193 -1.711475
4.642210 -9.795182 -1.716812
4.680483 -9.790980 -1.718817
4.718511 -9.786071 -1.720723
4.763631 -9.795562 -1.725190
4.802070 -9.791001 -1.727213
4.840747 -9.786727 -1.729312
4.889194 -9.801840 -1.734869
4.923132 -9.787581 -1.735258
4.961347 -9.781719 -1.737158
5.005709 -9.787699 -1.741190
5.048476 -9.790214 -1.744639
5.090943 -9.791831 -1.747959
5.133623 -9.793553 -1.751329
5.173929 -9.790477 -1.753872
5.219689 -9.797406 -1.758238
5.262918 -9.799232 -1.761723
5.297510 -9.784795 -1.762310
5.344269 -9.792599 -1.766933
5.378901 -9.777950 -1.767534
5.432150 -9.796824 -1.774228
5.465707 -9.779881 -1.774469
5.513628 -9.788419 -1.779362
5.563222 -9.799480 -1.784753
5.599241 -9.786357 -1.785772
5.641687 -9.784292 -1.788837
5.682077 -9.778429 -1.791238
5.733652 -9.791465 -1.797138
5.777304 -9.790583 -1.800521
5.823361 -9.793464 -1.804631
5.867158 -9.792233 -1.808019
5.898540 -9.770158 -1.807585
5.954237 -9.788094 -1.814586
6.001536 -9.791757 -1.818985
6.050961 -9.798506 -1.823998
6.095624 -9.797201 -1.827549
6.136181 -9.789061 -1.829858
6.177066 -9.781256 -1.832260
6.222458 -9.780345 -1.835987
6.271888 -9.785440 -1.840881
6.324203 -9.794623 -1.846587
6.361735 -9.780633 -1.847960
6.417171 -9.793861 -1.854515
6.455917 -9.781298 -1.856224
6.509517 -9.790944 -1.862186
6.557760 -9.792137 -1.866584
6.598814 -9.782340 -1.868924
6.647486 -9.783578 -1.873408
6.697373 -9.786254 -1.878209
6.751024 -9.794031 -1.884036
6.799736 -9.794261 -1.888455
6.838470 -9.779894 -1.890095
6.888932 -9.782059 -1.894966
6.937611 -9.781352 -1.899325
6.969699 -9.757103 -1.899143
6.998730 -9.728615 -1.898155
7.033741 -9.708451 -1.898812
7.070597 -9.690769 -1.899979
7.109200 -9.675381 -1.901625
7.136504 -9.644604 -1.900268
7.165404 -9.616064 -1.899367
7.195374 -9.589014 -1.898779
7.234534 -9.574165 -1.900631
7.264409 -9.546984 -1.900059
7.294689 -9.520370 -1.899620
7.329557 -9.499734 -1.900395
7.368852 -9.484739 -1.902327
7.392334 -9.449399 -1.900199
7.423354 -9.423775 -1.900041
7.449039 -9.391432 -1.898545
7.483139 -9.369727 -1.899219
7.530955 -9.365032 -1.903374
7.554042 -9.329517 -1.901293
