# This PCD file was generated using the MATLAB® pcwrite function
# from Computer Vision Toolbox®.
# .PCD v.7 - Point Cloud Data file format
VERSION .7
FIELDS x y z
SIZE 4 4 4
TYPE F F F
COUNT 1 1 1
WIDTH 1651
HEIGHT 1
VIEWPOINT 0 0 0 1 0 0 0
POINTS 1651
DATA ascii
-6.839259 9.993635 -0.211378
-6.885392 9.989022 -0.211767
-6.939008 9.994924 -0.212384
-6.994264 10.002757 -0.213048
-7.040754 9.997698 -0.213442
-7.088330 9.993908 -0.213867
-7.127218 9.977674 -0.214030
-7.186319 9.989429 -0.214798
-7.240101 9.993340 -0.215402
-7.287615 9.988264 -0.215819
-7.330980 9.977271 -0.216111
-7.386246 9.982171 -0.216752
-7.435963 9.979213 -0.217228
-7.494281 9.987411 -0.217952
-7.544090 9.983885 -0.218426
-7.609107 10.000046 -0.219337
-7.660074 9.997293 -0.219838
-7.693249 9.971164 -0.219830
-7.765578 9.995436 -0.220938
-7.806773 9.979218 -0.221156
-7.877770 10.000699 -0.222217
-7.921916 9.987669 -0.222516
-7.969633 9.978926 -0.222915
-8.040890 9.999210 -0.223969
-8.088821 9.990043 -0.224370
-8.142800 9.988049 -0.224937
-8.201264 9.991173 -0.225626
-8.263046 9.997897 -0.226402
-8.315563 9.993020 -0.226922
-8.366763 9.986260 -0.227404
-8.418424 9.979757 -0.227897
-8.476678 9.980725 -0.228567
-8.536553 9.983191 -0.229278
-8.596469 9.985286 -0.229986
-8.652141 9.982067 -0.230579
-8.721107 9.993737 -0.231523
-8.777753 9.990832 -0.232136
-8.834395 9.987568 -0.232747
-8.894769 9.988140 -0.233454
-8.955075 9.988229 -0.234157
-9.010142 9.982110 -0.234720
-9.076532 9.988129 -0.235576
-9.139825 9.990273 -0.236348
-9.203307 9.992187 -0.237122
-9.247142 9.972472 -0.237388
-9.319139 9.982776 -0.238376
-9.379749 9.980408 -0.239069
-9.447460 9.985156 -0.239940
-9.517536 9.991902 -0.240868
-9.576829 9.986888 -0.241520
-9.646237 9.991990 -0.242424
-9.703027 9.983608 -0.243008
-9.770215 9.985534 -0.243851
-9.829670 9.979146 -0.244499
-9.893828 9.977148 -0.245261
-9.961062 9.977815 -0.246097
-10.034901 9.984599 -0.247093
-10.099554 9.981768 -0.247860
-10.168561 9.982795 -0.248730
-10.237256 9.983051 -0.249590
-10.307040 9.983902 -0.250474
-10.379343 9.986704 -0.251416
-10.436440 9.974472 -0.251988
-10.505391 9.973190 -0.252844
-10.592067 9.988169 -0.254122
-10.657059 9.982164 -0.254877
-10.728145 9.981432 -0.255776
-10.806033 9.986515 -0.256833
-10.877859 9.985482 -0.257743
-10.956065 9.989792 -0.258801
-11.015073 9.976166 -0.259403
-11.090814 9.977281 -0.260398
-11.168201 9.979353 -0.261427
-11.256313 9.990415 -0.262704
-11.334549 9.992115 -0.263747
-11.399228 9.981412 -0.264472
-11.479653 9.984034 -0.265560
-11.563110 9.988721 -0.266714
-11.635488 9.983316 -0.267610
-11.713968 9.982661 -0.268644
-11.778075 9.969317 -0.269346
-11.877360 9.985196 -0.270849
-11.963003 9.988930 -0.272037
-12.036317 9.981845 -0.272941
-12.124487 9.986546 -0.274180
-12.181753 9.965350 -0.274718
-12.281640 9.978516 -0.276214
-12.364883 9.977512 -0.277333
-12.466339 9.990552 -0.278855
-12.539883 9.980628 -0.279750
-12.642555 9.993291 -0.281292
-12.713104 9.979981 -0.282115
-12.797359 9.976955 -0.283241
-12.886099 9.976855 -0.284463
-12.974247 9.975706 -0.285669
-13.071968 9.981283 -0.287082
-13.164109 9.981947 -0.288369
-13.251143 9.978146 -0.289541
-13.343567 9.977812 -0.290828
-13.448597 9.986221 -0.292386
-13.532457 9.978277 -0.293480
-13.623087 9.974768 -0.294719
-13.722317 9.976922 -0.296140
-13.828733 9.983591 -0.297713
-13.927531 9.984055 -0.299117
-14.013793 9.974931 -0.300250
-14.101856 9.966548 -0.301419
-14.132100 9.917040 -0.301353
-14.129797 9.844886 -0.300598
-14.120953 9.768559 -0.299712
-14.110720 9.691689 -0.298803
-14.113487 9.624107 -0.298177
-14.107147 9.550650 -0.297365
-14.115062 9.487147 -0.296859
-14.125598 9.425628 -0.296415
-14.121096 9.354350 -0.295660
-14.108541 9.278122 -0.294744
-14.117993 9.216681 -0.294295
-14.116592 9.148412 -0.293624
-14.122957 9.085443 -0.293122
-14.116979 9.014821 -0.292369
-14.112805 8.945685 -0.291659
-14.110215 8.877867 -0.290989
-14.123124 8.820030 -0.290644
-14.111360 8.747055 -0.289796
-14.119677 8.686815 -0.289367
-14.106718 8.613777 -0.288508
-14.112409 8.552427 -0.288037
-14.111911 8.487564 -0.287444
-14.114831 8.425006 -0.286927
-14.114288 8.360628 -0.286344
-14.124352 8.302743 -0.285982
-14.115769 8.234141 -0.285248
-14.116755 8.171404 -0.284712
-14.118330 8.109241 -0.284194
-14.111299 8.042401 -0.283508
-14.106211 7.976963 -0.282867
-14.114821 7.919492 -0.282506
-14.115149 7.857569 -0.281983
-14.104412 7.789763 -0.281245
-14.114615 7.733753 -0.280930
-14.119759 7.675130 -0.280519
-14.121939 7.615088 -0.280053
-14.116824 7.551346 -0.279448
-14.114273 7.489227 -0.278899
-14.099653 7.420994 -0.278117
-14.094847 7.358221 -0.277534
-14.120524 7.311485 -0.277555
-14.105439 7.243805 -0.276780
-14.117805 7.190441 -0.276548
-14.108642 7.126300 -0.275899
-14.118511 7.071971 -0.275627
-14.099239 7.003284 -0.274791
-14.122016 6.955665 -0.274778
-14.106082 6.889145 -0.274017
-14.103910 6.829613 -0.273529
-14.104822 6.771769 -0.273105
-14.105173 6.713838 -0.272674
-14.109623 6.658024 -0.272327
-14.102234 6.596817 -0.271756
-14.099936 6.538214 -0.271288
-14.122272 6.491129 -0.271297
-14.095714 6.421765 -0.270372
-14.109639 6.371070 -0.270228
-14.110853 6.314747 -0.269844
-14.108210 6.256874 -0.269391
-14.111229 6.201678 -0.269050
-14.105197 6.142684 -0.268541
-14.116863 6.091538 -0.268372
-14.116503 6.035321 -0.267979
-14.107198 5.975478 -0.267421
-14.103444 5.918197 -0.266972
-14.120176 5.869617 -0.266915
-14.110288 5.810100 -0.266358
-14.099133 5.750296 -0.265782
-14.104955 5.697587 -0.265530
-14.108692 5.644149 -0.265243
-14.114055 5.591473 -0.264990
-14.099440 5.531063 -0.264366
-14.110313 5.480810 -0.264224
-14.101156 5.422912 -0.263710
-14.111313 5.372578 -0.263562
-14.106825 5.316784 -0.263143
-14.098576 5.259758 -0.262659
-14.109836 5.210134 -0.262542
-14.112222 5.157314 -0.262263
-14.116524 5.105301 -0.262024
-14.111570 5.050072 -0.261616
-14.111834 4.996856 -0.261309
-14.095958 4.938111 -0.260707
-14.106410 4.888734 -0.260595
-14.107895 4.836328 -0.260322
-14.107015 4.783229 -0.260008
-14.103631 4.729419 -0.259652
-14.106569 4.677848 -0.259416
-14.106758 4.625470 -0.259133
-14.107988 4.573544 -0.258872
-14.107409 4.521142 -0.258582
-14.097686 4.465960 -0.258128
-14.113536 4.418967 -0.258145
-14.109545 4.365828 -0.257803
-14.108352 4.313680 -0.257516
-14.109802 4.262446 -0.257280
-14.113667 4.212027 -0.257091
-14.104918 4.157964 -0.256677
-14.115466 4.109685 -0.256616
-14.117764 4.059057 -0.256409
-14.112059 4.006239 -0.256060
-14.110197 3.954638 -0.255784
-14.111894 3.904130 -0.255576
-14.093569 3.848237 -0.255009
-14.116273 3.803625 -0.255188
-14.093692 3.746902 -0.254551
-14.101426 3.698382 -0.254466
-14.122323 3.653300 -0.254620
-14.102058 3.597656 -0.254036
-14.110358 3.549427 -0.253970
-14.093049 3.494874 -0.253446
-14.106674 3.448089 -0.253482
-14.109179 3.398610 -0.253320
-14.107551 3.348213 -0.253088
-14.105983 3.297922 -0.252860
-14.103801 3.247579 -0.252625
-14.113135 3.199939 -0.252598
-14.112617 3.150109 -0.252398
-14.093539 3.096280 -0.251870
-14.098624 3.047882 -0.251777
-14.100588 2.998856 -0.251631
-14.095902 2.948496 -0.251370
-14.100240 2.900094 -0.251272
-14.116562 2.854152 -0.251391
-14.111186 2.803852 -0.251126
-14.111773 2.754819 -0.250971
-14.098458 2.703181 -0.250572
-14.108902 2.656171 -0.250598
-14.112385 2.607864 -0.250503
-14.106678 2.557927 -0.250248
-14.102791 2.508413 -0.250028
-14.100479 2.459259 -0.249840
-14.108691 2.411977 -0.249841
-14.113485 2.364121 -0.249784
-14.109801 2.314896 -0.249580
-14.100557 2.264857 -0.249281
-14.105335 2.217138 -0.249232
-14.106956 2.168951 -0.249131
-14.120967 2.122666 -0.249251
-14.104131 2.071802 -0.248830
-14.122841 2.026201 -0.249039
-14.100502 1.974769 -0.248527
-14.107486 1.927543 -0.248535
-14.107654 1.879404 -0.248425
-14.106586 1.831147 -0.248297
-14.106120 1.783015 -0.248182
-14.093579 1.733442 -0.247858
-14.102596 1.686572 -0.247915
-14.098659 1.638173 -0.247748
-14.096851 1.590080 -0.247621
-14.103054 1.542911 -0.247638
-14.106179 1.495408 -0.247604
-14.099344 1.446897 -0.247397
-14.102166 1.399423 -0.247363
-14.109329 1.352377 -0.247408
-14.095778 1.303399 -0.247092
-14.106892 1.256739 -0.247212
-14.104599 1.208883 -0.247099
-14.113524 1.161994 -0.247186
-14.093416 1.112779 -0.246767
-14.107238 1.066288 -0.246945
-14.107089 1.018720 -0.246881
-14.093733 0.970267 -0.246589
-14.103424 0.923435 -0.246703
-14.090801 0.875172 -0.246429
-14.101029 0.828356 -0.246558
-14.106831 0.781246 -0.246613
-14.104289 0.733679 -0.246524
-14.109524 0.686525 -0.246574
-14.102549 0.638798 -0.246413
-14.106718 0.591600 -0.246450
-14.087626 0.543489 -0.246083
-14.101933 0.496695 -0.246302
-14.103819 0.449421 -0.246308
-14.118608 0.402512 -0.246541
-14.100692 0.354690 -0.246206
-14.101121 0.307396 -0.246194
-14.100615 0.260089 -0.246169
-14.091198 0.212657 -0.245990
-14.098989 0.165495 -0.246115
-14.099826 0.118226 -0.246122
-14.088217 0.070891 -0.245913
-14.106601 0.023686 -0.246232
-14.106709 0.000037 -0.246233
-14.101335 -0.023677 0.246140
-14.099540 -0.070948 0.246111
-14.104356 -0.118264 0.246201
-14.102448 -0.165535 0.246176
-14.107462 -0.212902 0.246274
-14.098560 -0.260051 0.246133
-14.086445 -0.307076 0.245938
-14.089030 -0.354397 0.246002
-14.114024 -0.402381 0.246461
-14.083711 -0.448780 0.245956
-14.109214 -0.496952 0.246430
-14.096012 -0.543813 0.246229
-14.107036 -0.591613 0.246455
-14.097808 -0.638583 0.246330
-14.118658 -0.686969 0.246733
-14.109071 -0.733928 0.246607
-14.096608 -0.780679 0.246434
-14.098940 -0.828234 0.246522
-14.108230 -0.876254 0.246734
-14.094252 -0.922834 0.246542
-14.084457 -0.969628 0.246427
-14.096859 -1.017982 0.246702
-14.101770 -1.065875 0.246849
-14.103397 -1.113567 0.246942
-14.110232 -1.161723 0.247128
-14.091232 -1.207738 0.246865
-14.096072 -1.255775 0.247022
-14.091730 -1.303025 0.247021
-14.085781 -1.350120 0.246995
-14.094559 -1.398668 0.247229
-14.098379 -1.446798 0.247380
-14.086093 -1.493279 0.247251
-14.104451 -1.543064 0.247663
-14.110450 -1.591614 0.247860
-14.100108 -1.638342 0.247774
-14.093573 -1.685493 0.247757
-14.092025 -1.733250 0.247830
-14.100426 -1.782295 0.248082
-14.090521 -1.829062 0.248014
-14.096055 -1.877859 0.248221
-14.097642 -1.926198 0.248361
-14.096290 -1.974180 0.248453
-14.107647 -2.024021 0.248771
-14.091424 -2.069936 0.248606
-14.086195 -2.117439 0.248637
-14.100912 -2.168022 0.249024
-14.099909 -2.216285 0.249136
-14.086752 -2.262640 0.249036
-14.085397 -2.310892 0.249148
-14.090778 -2.360317 0.249382
-14.101381 -2.410727 0.249711
-14.091609 -2.457712 0.249683
-14.091835 -2.506464 0.249834
-14.090997 -2.555084 0.249970
-14.098815 -2.605356 0.250262
-14.095639 -2.653674 0.250362
-14.090731 -2.701699 0.250434
-14.103266 -2.753158 0.250820
-14.093324 -2.800303 0.250809
-14.088652 -2.848509 0.250894
-14.098423 -2.899720 0.251240
-14.090322 -2.947329 0.251270
-14.106780 -3.000173 0.251742
-14.077634 -3.043344 0.251402
-14.086283 -3.094686 0.251740
-14.099549 -3.147192 0.252165
-14.088058 -3.194252 0.252149
-14.086704 -3.243642 0.252318
-14.092126 -3.294683 0.252612
-14.101591 -3.346799 0.252981
-14.084968 -3.392778 0.252886
-14.097983 -3.445965 0.253325
-14.090469 -3.494235 0.253399
-14.102054 -3.547338 0.253820
-14.089699 -3.594503 0.253813
-14.092425 -3.645566 0.254081
-14.088414 -3.694969 0.254231
-14.099800 -3.748526 0.254662
-14.082929 -3.794640 0.254585
-14.099998 -3.849993 0.255126
-14.095534 -3.899604 0.255280
-14.089989 -3.948974 0.255418
-14.088875 -3.999658 0.255640
-14.079452 -4.048042 0.255713
-14.090837 -4.102515 0.256169
-14.101502 -4.156958 0.256614
-14.088915 -4.204640 0.256640
-14.084067 -4.254672 0.256811
-14.090311 -4.308165 0.257186
-14.094390 -4.361138 0.257526
-14.090408 -4.411726 0.257722
-14.083786 -4.461557 0.257873
-14.093825 -4.516788 0.258333
-14.091823 -4.568303 0.258576
-14.086656 -4.618879 0.258763
-14.093792 -4.673611 0.259181
-14.095855 -4.726811 0.259509
-14.090162 -4.777515 0.259697
-14.104039 -4.835006 0.260251
-14.096233 -4.885207 0.260407
-14.100188 -4.939593 0.260785
-14.105245 -4.994523 0.261187
-14.084547 -5.040401 0.261115
-14.086265 -5.094357 0.261462
-14.087262 -5.148193 0.261799
-14.095465 -5.204828 0.262275
-14.087740 -5.255716 0.262457
-14.101736 -5.314866 0.263048
-14.089231 -5.364171 0.263149
-14.097995 -5.421696 0.263651
-14.082477 -5.469998 0.263702
-14.100486 -5.531473 0.264385
-14.102505 -5.586896 0.264773
-14.081681 -5.633343 0.264735
-14.086491 -5.690129 0.265183
-14.081608 -5.743148 0.265452
-14.080729 -5.797928 0.265800
-14.095344 -5.859294 0.266445
-14.089656 -5.912411 0.266711
-14.085747 -5.966392 0.267014
-14.084560 -6.021665 0.267373
-14.095037 -6.082120 0.267957
-14.095902 -6.138636 0.268364
-14.090315 -6.192487 0.268651
-14.092045 -6.249704 0.269082
-14.095719 -6.307974 0.269555
-14.088196 -6.361388 0.269817
-14.100649 -6.424013 0.270467
-14.083343 -6.473236 0.270549
-14.087899 -6.532631 0.271056
-14.088884 -6.590573 0.271499
-14.091026 -6.649248 0.271968
-14.084107 -6.703811 0.272267
-14.104630 -6.771677 0.273101
-14.087293 -6.821566 0.273207
-14.087526 -6.880083 0.273657
-14.089549 -6.939674 0.274147
-14.095346 -7.001351 0.274715
-14.069890 -7.047617 0.274677
-14.084355 -7.114033 0.275424
-14.081738 -7.172071 0.275842
-14.086677 -7.234169 0.276412
-14.076591 -7.288736 0.276692
-14.098554 -7.360157 0.277607
-14.073466 -7.407211 0.277601
-14.094299 -7.478629 0.278505
-14.089297 -7.536622 0.278903
-14.075954 -7.590292 0.279142
-14.085367 -7.656436 0.279836
-14.079190 -7.714343 0.280225
-14.090413 -7.782032 0.280966
-14.073286 -7.834265 0.281147
-14.085182 -7.902862 0.281912
-14.080499 -7.962423 0.282351
-14.076818 -8.022750 0.282815
-14.087481 -8.091521 0.283573
-14.082703 -8.151692 0.284026
-14.098838 -8.224265 0.284905
-14.082616 -8.278209 0.285137
-14.086771 -8.344328 0.285786
-14.081691 -8.405226 0.286253
-14.098718 -8.479630 0.287175
-14.079028 -8.532197 0.287355
-14.089477 -8.603250 0.288156
-14.090477 -8.668851 0.288769
-14.082160 -8.728955 0.289197
-14.072314 -8.788299 0.289598
-14.081031 -8.859504 0.290387
-14.077522 -8.923321 0.290930
-14.083291 -8.993309 0.291671
-14.086682 -9.062107 0.292369
-14.074744 -9.121291 0.292754
-14.079934 -9.191834 0.293501
-14.081159 -9.260115 0.294172
-14.079625 -9.326878 0.294792
-14.078736 -9.394358 0.295431
-14.080990 -9.464247 0.296143
-14.075709 -9.529366 0.296702
-14.092379 -9.609714 0.297731
-14.082682 -9.672432 0.298209
-14.080225 -9.740383 0.298847
-14.088801 -9.816322 0.299726
-14.005802 -9.828412 0.298660
-13.905826 -9.828002 0.297229
-13.812407 -9.831585 0.295935
-13.709067 -9.827446 0.294425
-13.603939 -9.821301 0.292873
-13.514919 -9.826133 0.291664
-13.415964 -9.823113 0.290238
-13.314252 -9.817382 0.288748
-13.232174 -9.825518 0.287681
-13.136909 -9.823280 0.286324
-13.040236 -9.819332 0.284933
-12.955365 -9.823663 0.283797
-12.872650 -9.829091 0.282705
-12.780324 -9.826602 0.281399
-12.678813 -9.816367 0.279887
-12.593267 -9.817844 0.278724
-12.519185 -9.827752 0.277812
-12.419546 -9.817014 0.276330
-12.344574 -9.825180 0.275393
-12.260250 -9.825392 0.274245
-12.173358 -9.822966 0.273037
-12.093922 -9.825999 0.271993
-11.990295 -9.808727 0.270400
-11.927442 -9.824245 0.269724
-11.836429 -9.816075 0.268409
-11.759821 -9.819275 0.267416
-11.676934 -9.816699 0.266279
-11.613891 -9.830347 0.265591
-11.515439 -9.813474 0.264091
-11.445850 -9.820606 0.263248
-11.359971 -9.813240 0.262028
-11.282630 -9.812678 0.261002
-11.216786 -9.821661 0.260239
-11.129928 -9.811728 0.258986
-11.054242 -9.811069 0.257988
-10.990220 -9.820317 0.257261
-10.907064 -9.811979 0.256083
-10.824263 -9.803352 0.254910
-10.755797 -9.807187 0.254070
-10.689124 -9.812230 0.253271
-10.624149 -9.818425 0.252510
-10.549292 -9.815027 0.251511
-10.487115 -9.822983 0.250813
-10.416834 -9.822927 0.249918
-10.337332 -9.813644 0.248799
-10.272568 -9.817854 0.248031
-10.211075 -9.824801 0.247340
-10.128886 -9.811334 0.246145
-10.058887 -9.809113 0.245242
-9.995812 -9.813203 0.244505
-9.932876 -9.817033 0.243769
-9.863459 -9.814016 0.242872
-9.806660 -9.823153 0.242283
-9.732982 -9.814947 0.241274
-9.664222 -9.811182 0.240384
-9.615682 -9.827596 0.239994
-9.545260 -9.821280 0.239057
-9.478643 -9.818389 0.238212
-9.415010 -9.818140 0.237439
-9.337290 -9.802672 0.236306
-9.290028 -9.818764 0.235942
-9.215778 -9.805936 0.234890
-9.162529 -9.815013 0.234370
-9.095733 -9.809187 0.233502
-9.030609 -9.804686 0.232672
-8.995184 -9.832174 0.232608
-8.927390 -9.824007 0.231705
-8.852367 -9.807315 0.230610
-8.796667 -9.811545 0.230015
-8.741547 -9.816083 0.229433
-8.685333 -9.819048 0.228820
-8.618637 -9.809727 0.227928
-8.566195 -9.816219 0.227410
-8.508001 -9.815773 0.226738
-8.447843 -9.812648 0.226010
-8.384488 -9.805357 0.225193
-8.328057 -9.805734 0.224560
-8.276486 -9.811495 0.224055
-8.233414 -9.827100 0.223779
-8.169278 -9.817226 0.222930
-8.110334 -9.813124 0.222218
-8.045257 -9.801117 0.221334
-7.996124 -9.808133 0.220886
-7.933660 -9.798412 0.220066
-7.892529 -9.814717 0.219837
-7.836389 -9.812089 0.219188
-7.783904 -9.813668 0.218639
-7.737542 -9.822681 0.218261
-7.672493 -9.807572 0.217352
-7.620544 -9.808757 0.216811
-7.578993 -9.823078 0.216565
-7.506863 -9.797335 0.215441
-7.472403 -9.820386 0.215396
-7.412676 -9.809972 0.214621
-7.361799 -9.810857 0.214099
-7.311048 -9.811574 0.213579
-7.260547 -9.812296 0.213064
-7.212828 -9.816468 0.212628
-7.162166 -9.816326 0.212103
-7.107120 -9.809790 0.211446
-7.061482 -9.815898 0.211066
-7.010107 -9.813725 0.210513
-6.961411 -9.814964 0.210038
-6.905307 -9.805367 0.209336
-6.860002 -9.810742 0.208958
-6.811862 -9.811783 0.208493
-6.765140 -9.814566 0.208069
-6.708110 -9.801999 0.207324
-6.668255 -9.814202 0.207108
-6.627608 -9.825082 0.206868
-6.569587 -9.809855 0.206082
-6.522258 -9.810164 0.205628
-6.479599 -9.817233 0.205320
-6.429094 -9.812115 0.204761
-6.381552 -9.811157 0.204293
-6.334061 -9.809948 0.203825
-6.290230 -9.814116 0.203472
-6.239691 -9.807489 0.202900
-6.200865 -9.818998 0.202707
-6.150660 -9.812216 0.202140
-6.099705 -9.803818 0.201544
-6.053920 -9.803356 0.201116
-6.014466 -9.812910 0.200898
-5.966356 -9.808074 0.200388
-5.924083 -9.812526 0.200072
-5.879930 -9.813606 0.199691
-5.834238 -9.811814 0.199255
-5.783132 -9.800518 0.198631
-5.737609 -9.798282 0.198195
-5.703981 -9.816184 0.198169
-5.658001 -9.812645 0.197713
-5.613955 -9.812135 0.197323
-5.563293 -9.799667 0.196696
-5.522591 -9.804391 0.196418
-5.486196 -9.816603 0.196293
-5.445550 -9.821053 0.196016
-5.395881 -9.808879 0.195410
-5.356994 -9.815977 0.195193
-5.309101 -9.806267 0.194645
-5.265103 -9.803363 0.194236
-5.224281 -9.806087 0.193941
-5.186037 -9.813451 0.193742
-5.138996 -9.803866 0.193212
-5.101283 -9.811783 0.193030
-5.052885 -9.798825 0.192440
-5.015751 -9.807400 0.192277
-4.977533 -9.813696 0.192072
-4.936498 -9.814219 0.191758
-4.895423 -9.814392 0.191439
-4.854705 -9.815012 0.191133
-4.803285 -9.793544 0.190400
-4.767483 -9.803550 0.190283
-4.725388 -9.800402 0.189913
-4.690626 -9.812264 0.189837
-4.656012 -9.824370 0.189768
-4.612378 -9.817220 0.189330
-4.571045 -9.814610 0.188983
-4.529832 -9.811945 0.188639
-4.491566 -9.815402 0.188414
-4.447021 -9.804807 0.187924
-4.410186 -9.810905 0.187756
-4.369802 -9.808880 0.187436
-4.327689 -9.802633 0.187038
-4.292507 -9.811850 0.186939
-4.254039 -9.813394 0.186695
-4.211295 -9.804743 0.186261
-4.171639 -9.802925 0.185960
-4.139336 -9.818252 0.185986
-4.086974 -9.785577 0.185106
-4.059585 -9.812380 0.185355
-4.021000 -9.812118 0.185094
-3.987141 -9.823233 0.185051
-3.947212 -9.819202 0.184724
-3.898576 -9.792966 0.183984
-3.867311 -9.810017 0.184060
-3.826816 -9.803504 0.183696
-3.790883 -9.808410 0.183548
-3.747637 -9.794044 0.183043
-3.717481 -9.813689 0.183177
-3.679988 -9.813915 0.182949
-3.638727 -9.803739 0.182531
-3.602835 -9.807711 0.182379
-3.565759 -9.808259 0.182166
-3.529930 -9.812034 0.182015
-3.487801 -9.797937 0.181536
-3.461731 -9.828882 0.181893
-3.419512 -9.813900 0.181403
-3.374408 -9.789973 0.180750
-3.343252 -9.806178 0.180842
-3.307987 -9.810311 0.180712
-3.267639 -9.799044 0.180302
-3.238827 -9.822258 0.180528
-3.195475 -9.801160 0.179943
-3.163212 -9.813730 0.179978
-3.126914 -9.813682 0.179783
-3.083895 -9.792048 0.179197
-3.056033 -9.818353 0.179490
-3.018525 -9.813682 0.179218
-2.981250 -9.809417 0.178957
-2.943600 -9.803556 0.178669
-2.910903 -9.814010 0.178680
-2.876015 -9.816998 0.178558
-2.833692 -9.794126 0.177968
-2.803654 -9.813426 0.178147
-2.764234 -9.799720 0.177729
-2.730486 -9.805790 0.177672
-2.695149 -9.805993 0.177511
-2.657924 -9.799005 0.177222
-2.624543 -9.805948 0.177188
-2.587301 -9.798221 0.176890
-2.553597 -9.803624 0.176832
-2.517397 -9.799222 0.176600
-2.481991 -9.797589 0.176419
-2.446129 -9.793850 0.176203
-2.411862 -9.796246 0.176100
-2.380246 -9.809400 0.176192
-2.346162 -9.812384 0.176103
-2.304613 -9.783529 0.175446
-2.272362 -9.793633 0.175489
-2.241789 -9.811156 0.175668
-2.202368 -9.789666 0.175150
-2.171757 -9.807039 0.175329
-2.134292 -9.793288 0.174955
-2.100683 -9.796836 0.174891
-2.068141 -9.805327 0.174918
-2.036104 -9.816301 0.174991
-1.998760 -9.801394 0.174605
-1.962976 -9.793522 0.174346
-1.930360 -9.801224 0.174367
-1.893595 -9.787519 0.174010
-1.865238 -9.817335 0.174427
-1.827341 -9.796884 0.173954
-1.794129 -9.801018 0.173920
-1.758795 -9.793265 0.173677
-1.729284 -9.818036 0.174012
-1.693143 -9.805172 0.173683
-1.659758 -9.807834 0.173630
-1.624436 -9.798691 0.173371
-1.592321 -9.808686 0.173452
-1.555673 -9.790356 0.173035
-1.521713 -9.788275 0.172907
-1.491399 -9.809847 0.173199
-1.456510 -9.801402 0.172963
-1.423031 -9.802040 0.172889
-1.390597 -9.809848 0.172943
-1.354168 -9.788935 0.172493
-1.322552 -9.802398 0.172652
-1.289054 -9.802027 0.172568
-1.254634 -9.794211 0.172355
-1.221347 -9.794812 0.172293
-1.187286 -9.788850 0.172117
-1.154671 -9.794569 0.172148
-1.122845 -9.807292 0.172305
-1.087626 -9.790020 0.171936
-1.055267 -9.797990 0.172013
-1.022549 -9.802798 0.172037
-0.986909 -9.778759 0.171556
-0.956857 -9.810099 0.172048
-0.923976 -9.813426 0.172051
-0.888995 -9.793620 0.171651
-0.856798 -9.803915 0.171780
-0.821692 -9.780192 0.171315
-0.790864 -9.807296 0.171742
-0.757887 -9.808721 0.171722
-0.723619 -9.792567 0.171396
-0.691092 -9.799331 0.171473
-0.658165 -9.800579 0.171455
-0.624715 -9.793537 0.171294
-0.591829 -9.794806 0.171281
-0.558216 -9.783240 0.171045
-0.526996 -9.814572 0.171561
-0.493518 -9.804989 0.171363
-0.460296 -9.799233 0.171235
-0.427276 -9.797009 0.171170
-0.394268 -9.794453 0.171101
-0.361246 -9.790814 0.171015
-0.328615 -9.797873 0.171118
-0.295900 -9.803469 0.171198
-0.262960 -9.801836 0.171153
-0.230128 -9.804056 0.171177
-0.197312 -9.807585 0.171226
-0.164192 -9.794114 0.170981
-0.131507 -9.806087 0.171181
-0.098480 -9.791758 0.170924
-0.065676 -9.795936 0.170992
-0.032841 -9.799027 0.171043
0.000013 -9.791066 0.170903
0.032883 -9.803720 0.171125
0.065817 -9.813025 0.171291
0.098588 -9.799837 0.171065
0.131566 -9.808545 0.171224
0.164551 -9.813982 0.171328
0.197427 -9.812016 0.171304
0.230005 -9.797718 0.171067
0.262970 -9.801222 0.171142
0.296062 -9.807987 0.171277
0.328778 -9.801963 0.171190
0.361281 -9.791056 0.171020
0.394709 -9.804774 0.171281
0.427331 -9.797672 0.171181
0.460330 -9.799404 0.171238
0.492717 -9.788562 0.171076
0.526068 -9.796796 0.171250
0.559021 -9.796899 0.171283
0.592603 -9.807182 0.171497
0.624511 -9.789932 0.171231
0.658615 -9.806890 0.171565
0.690804 -9.794882 0.171395
0.723128 -9.785565 0.171273
0.757027 -9.797246 0.171521
0.789209 -9.786443 0.171377
0.823924 -9.806443 0.171775
0.856906 -9.804857 0.171797
0.889771 -9.801883 0.171796
0.922194 -9.794215 0.171715
0.956656 -9.807775 0.172008
0.989902 -9.808155 0.172071
1.021240 -9.790002 0.171812
1.056931 -9.813190 0.172280
1.088182 -9.794793 0.172020
1.121971 -9.799429 0.172167
1.154628 -9.793983 0.172138
1.188173 -9.795943 0.172242
1.222182 -9.801297 0.172407
1.253471 -9.784922 0.172192
1.287745 -9.791873 0.172389
1.322327 -9.800536 0.172619
1.355932 -9.801494 0.172715
1.389752 -9.803699 0.172835
1.423086 -9.802236 0.172892
1.456582 -9.801708 0.172968
1.491926 -9.813139 0.173257
1.521719 -9.788141 0.172905
1.557327 -9.800599 0.173216
1.591120 -9.801125 0.173319
1.625265 -9.803529 0.173457
1.657478 -9.794200 0.173389
1.693412 -9.806572 0.173707
1.725896 -9.798645 0.173669
1.757855 -9.787880 0.173581
1.793550 -9.797712 0.173861
1.826325 -9.791291 0.173855
1.861287 -9.796398 0.174056
1.895205 -9.795703 0.174155
1.931268 -9.805695 0.174447
1.964553 -9.801256 0.174484
1.994432 -9.780043 0.174225
2.034311 -9.807528 0.174835
2.063921 -9.785190 0.174559
2.102860 -9.806859 0.175070
2.135825 -9.800199 0.175078
2.168832 -9.793709 0.175091
2.206110 -9.806174 0.175445
2.236725 -9.788876 0.175269
2.271610 -9.790273 0.175429
2.308280 -9.798977 0.175723
2.341213 -9.791568 0.175730
2.376387 -9.793380 0.175904
2.411962 -9.796540 0.176105
2.444641 -9.787784 0.176094
2.482888 -9.801023 0.176481
2.517900 -9.801070 0.176633
2.552453 -9.799122 0.176751
2.586656 -9.795671 0.176845
2.620654 -9.791312 0.176924
2.658117 -9.799610 0.177234
2.688454 -9.781532 0.177069
2.726491 -9.791340 0.177411
2.761521 -9.790005 0.177553
2.801238 -9.804871 0.177992
2.834871 -9.798101 0.178041
2.870559 -9.798278 0.178218
2.905478 -9.795623 0.178346
2.941674 -9.797050 0.178550
2.978897 -9.801580 0.178814
3.009445 -9.784069 0.178678
3.053463 -9.810002 0.179337
3.081490 -9.784320 0.179055
3.120364 -9.793036 0.179405
3.159797 -9.803044 0.179782
3.195833 -9.802167 0.179961
3.230732 -9.797623 0.180076
3.268878 -9.802670 0.180369
3.305043 -9.801493 0.180550
3.336207 -9.785429 0.180459
3.375872 -9.794134 0.180827
3.413341 -9.796107 0.181074
3.446650 -9.785982 0.181100
3.487107 -9.795905 0.181499
3.519724 -9.783583 0.181488
3.555113 -9.778894 0.181621
3.601324 -9.803517 0.182302
3.633929 -9.790731 0.182289
3.673944 -9.797718 0.182648
3.712438 -9.800297 0.182927
3.748737 -9.796841 0.183096
3.778722 -9.776868 0.182958
3.822901 -9.793400 0.183507
3.858685 -9.788061 0.183648
3.902758 -9.803395 0.184180
3.936127 -9.791553 0.184205
3.971961 -9.785758 0.184345
4.015673 -9.799044 0.184848
4.045646 -9.778615 0.184717
4.089567 -9.791713 0.185223
4.134123 -9.805815 0.185751
4.168344 -9.795110 0.185812
4.205866 -9.792031 0.186020
4.249076 -9.801872 0.186476
4.288259 -9.802071 0.186752
4.318843 -9.782527 0.186655
4.364793 -9.797565 0.187220
4.401015 -9.790434 0.187365
4.441662 -9.792922 0.187696
4.483511 -9.797731 0.188075
4.519059 -9.788541 0.188189
4.563146 -9.797582 0.188656
4.605423 -9.802350 0.189044
4.636943 -9.784069 0.188990
4.684099 -9.798543 0.189572
4.722950 -9.795280 0.189814
4.753273 -9.774264 0.189715
4.802475 -9.791828 0.190367
4.840854 -9.786943 0.190586
4.886849 -9.797137 0.191103
4.921628 -9.784593 0.191179
4.967246 -9.793350 0.191674
5.011218 -9.798471 0.192102
5.045739 -9.784904 0.192167
5.090546 -9.791067 0.192622
5.127650 -9.782157 0.192784
5.179246 -9.800536 0.193487
5.213337 -9.785482 0.193534
5.254720 -9.783968 0.193852
5.300341 -9.790024 0.194323
5.340230 -9.785198 0.194581
5.384964 -9.788971 0.195014
5.420279 -9.775415 0.195105
5.479346 -9.804286 0.196047
5.514703 -9.790326 0.196136
5.547820 -9.772349 0.196148
5.603147 -9.793183 0.196942
5.641397 -9.783789 0.197132
5.686715 -9.786409 0.197568
5.729499 -9.784373 0.197914
5.783305 -9.800751 0.198636
5.809435 -9.770042 0.198407
5.860553 -9.781209 0.199032
5.919422 -9.804748 0.199914
5.961299 -9.799702 0.200217
6.003559 -9.795056 0.200532
6.044763 -9.788468 0.200811
6.088499 -9.785748 0.201173
6.136393 -9.789398 0.201670
6.183850 -9.791998 0.202150
6.218410 -9.773983 0.202207
6.277471 -9.794152 0.203058
6.317090 -9.783607 0.203278
6.373004 -9.797957 0.204019
6.421302 -9.800166 0.204512
6.462039 -9.790574 0.204763
6.507743 -9.788277 0.205170
6.559330 -9.794482 0.205760
6.604763 -9.791159 0.206154
6.645854 -9.781175 0.206412
6.700621 -9.790999 0.207092
6.746359 -9.787264 0.207490
6.787564 -9.776730 0.207748
6.846225 -9.790985 0.208538
6.886846 -9.779097 0.208775
6.943335 -9.789423 0.209492
6.994245 -9.791465 0.210036
7.043631 -9.791030 0.210532
7.091869 -9.788684 0.210992
7.141028 -9.787300 0.211477
7.201849 -9.801474 0.212303
7.243784 -9.789588 0.212571
7.290988 -9.784599 0.212992
7.353894 -9.800267 0.213869
7.398742 -9.791477 0.214217
7.448792 -9.789302 0.214715
7.499219 -9.787304 0.215221
7.556190 -9.793468 0.215913
7.600481 -9.782878 0.216240
7.665402 -9.798455 0.217151
7.708698 -9.786011 0.217447
7.757101 -9.779823 0.217886
7.819353 -9.790705 0.218711
7.868117 -9.784307 0.219156
7.924781 -9.787393 0.219819
7.969193 -9.775046 0.220141
8.040577 -9.795363 0.221204
8.091377 -9.790133 0.221698
8.141182 -9.783409 0.222162
8.200107 -9.787292 0.222873
8.252817 -9.783383 0.223413
8.313606 -9.788666 0.224169
8.372061 -9.790771 0.224859
8.423426 -9.784234 0.225356
8.488693 -9.793445 0.226223
8.547322 -9.794540 0.226909
8.597109 -9.785172 0.227358
8.653410 -9.782907 0.227978
8.710182 -9.780811 0.228609
8.772332 -9.784350 0.229378
8.834535 -9.787506 0.230145
8.899802 -9.793596 0.230988
8.946804 -9.779241 0.231356
9.012609 -9.785090 0.232208
9.072014 -9.783556 0.232892
9.134959 -9.785428 0.233664
9.186393 -9.774617 0.234140
9.257723 -9.784568 0.235121
9.324875 -9.789587 0.235991
9.374428 -9.775768 0.236415
9.444263 -9.782723 0.237347
9.506009 -9.780842 0.238074
9.567086 -9.777878 0.238781
9.641514 -9.788077 0.239818
9.691186 -9.772748 0.240237
9.772255 -9.788638 0.241432
9.836138 -9.786780 0.242198
9.890368 -9.774968 0.242725
9.970325 -9.788130 0.243881
10.039474 -9.790129 0.244768
10.101951 -9.785190 0.245490
10.183975 -9.798675 0.246683
10.242251 -9.788827 0.247298
10.307652 -9.785416 0.248084
10.375427 -9.783829 0.248924
10.437423 -9.776385 0.249624
10.518135 -9.785987 0.250768
10.584160 -9.781417 0.251559
10.653851 -9.779799 0.252434
10.731469 -9.784952 0.253495
10.799395 -9.780778 0.254323
10.870779 -9.779285 0.255231
10.959569 -9.792877 0.256543
11.019327 -9.780027 0.257173
11.105026 -9.789724 0.258406
11.178120 -9.787752 0.259341
11.236240 -9.772281 0.259928
11.323001 -9.781251 0.261175
11.394760 -9.776719 0.262073
11.477162 -9.780802 0.263212
11.561759 -9.786168 0.264398
11.630281 -9.777426 0.265214
11.713597 -9.780626 0.266365
11.803720 -9.788896 0.267666
11.878592 -9.783957 0.268619
11.951736 -9.777130 0.269530
12.034245 -9.777461 0.270650
12.123745 -9.782878 0.271923
12.207500 -9.783065 0.273065
12.290801 -9.782328 0.274193
12.369522 -9.777419 0.275216
12.455637 -9.777813 0.276401
12.546853 -9.781606 0.277696
12.634175 -9.781754 0.278901
12.718698 -9.779164 0.280042
12.814387 -9.784550 0.281425
12.895401 -9.778140 0.282482
12.990246 -9.781635 0.283840
13.077382 -9.778714 0.285026
13.155987 -9.768890 0.286024
13.266749 -9.782301 0.287717
13.350256 -9.774948 0.288816
13.452242 -9.780508 0.290311
13.540718 -9.775605 0.291511
13.637461 -9.776060 0.292887
13.732100 -9.774368 0.294214
13.828903 -9.773582 0.295584
13.932886 -9.777189 0.297104
14.038220 -9.781025 0.298650
14.131643 -9.775899 0.299938
14.227898 -9.772116 0.301284
14.330427 -9.771985 0.302760
14.442344 -9.777524 0.304430
14.542567 -9.774430 0.305850
14.649541 -9.775185 0.307409
14.743951 -9.766896 0.308701
14.867558 -9.777214 0.310601
14.967554 -9.771245 0.312004
15.087693 -9.777687 0.313823
15.189464 -9.771481 0.315256
15.308659 -9.775747 0.317048
15.424213 -9.776890 0.318761
15.525728 -9.768422 0.320180
15.645127 -9.770478 0.321965
15.710940 -9.738512 0.322646
15.725286 -9.674574 0.322272
15.728795 -9.604185 0.321682
15.717488 -9.525083 0.320796
15.730417 -9.460953 0.320411
15.724031 -9.385467 0.319638
15.711440 -9.306647 0.318746
15.711267 -9.235526 0.318112
15.717399 -9.168363 0.317612
15.720776 -9.099826 0.317062
15.714718 -9.026114 0.316328
15.721660 -8.960134 0.315861
15.712963 -8.885515 0.315086
15.719025 -8.819518 0.314613
15.709481 -8.745041 0.313833
15.722082 -8.683136 0.313502
15.717610 -8.612020 0.312835
15.714088 -8.541712 0.312193
15.712432 -8.472689 0.311594
15.717646 -8.407601 0.311137
15.702413 -8.331862 0.310281
15.718125 -8.272782 0.310041
15.705038 -8.198770 0.309239
15.724329 -8.141868 0.309080
15.726296 -8.076138 0.308584
15.723258 -8.008073 0.307996
15.703921 -7.932026 0.307095
15.728752 -7.878490 0.307062
15.716857 -7.806725 0.306317
15.710550 -7.738031 0.305687
15.703861 -7.669419 0.305055
15.707515 -7.606083 0.304628
15.701967 -7.538512 0.304029
15.716002 -7.480515 0.303813
15.715820 -7.415902 0.303328
15.716466 -7.351881 0.302862
15.703223 -7.281615 0.302135
15.697881 -7.215288 0.301565
15.710467 -7.157369 0.301344
15.719335 -7.097862 0.301056
15.700775 -7.026203 0.300248
15.706451 -6.965631 0.299908
15.704383 -6.901796 0.299425
15.717430 -6.844747 0.299235
15.699965 -6.774610 0.298468
15.706725 -6.715150 0.298167
15.725639 -6.660963 0.298100
15.709256 -6.591991 0.297369
15.714502 -6.532314 0.297052
15.699227 -6.464318 0.296352
15.726491 -6.413961 0.296459
15.704459 -6.343647 0.295641
15.710286 -6.284814 0.295352
15.700677 -6.219986 0.294778
15.702297 -6.159799 0.294419
15.704689 -6.100059 0.294079
15.703995 -6.039271 0.293685
15.702749 -5.978435 0.293285
15.709575 -5.920804 0.293040
15.711687 -5.861515 0.292711
15.706978 -5.799840 0.292260
15.709418 -5.740963 0.291945
15.711879 -5.682220 0.291635
15.701212 -5.618906 0.291086
15.709787 -5.562628 0.290898
15.696102 -5.498628 0.290301
15.710923 -5.444749 0.290236
15.710319 -5.385608 0.289890
15.716758 -5.328994 0.289677
15.702327 -5.265469 0.289084
15.714641 -5.211051 0.288988
15.710891 -5.151403 0.288599
15.715703 -5.094688 0.288372
15.700358 -5.031604 0.287780
15.701330 -4.973927 0.287490
15.711396 -4.919214 0.287371
15.708497 -4.860536 0.287018
15.722597 -4.807196 0.286980
15.706688 -4.744806 0.286397
15.708493 -4.687935 0.286142
15.703147 -4.629058 0.285760
15.712295 -4.574553 0.285646
15.699026 -4.513648 0.285128
15.719133 -4.462423 0.285220
15.712153 -4.403570 0.284824
15.702218 -4.344057 0.284378
15.702980 -4.287641 0.284130
15.695710 -4.229159 0.283740
15.699993 -4.173903 0.283563
15.711719 -4.120669 0.283524
15.723896 -4.067566 0.283496
15.702730 -4.005968 0.282870
15.707255 -3.951079 0.282712
9.759878 -2.420282 0.175519
9.772297 -2.388611 0.175597
9.769999 -2.353364 0.175413
9.766925 -2.318004 0.175218
9.786720 -2.288069 0.175434
15.712915 -3.618054 0.281446
15.702999 -3.560372 0.281053
15.702105 -3.504858 0.280826
15.688787 -3.446705 0.280379
15.694026 -3.392737 0.280268
15.705887 -3.340221 0.280278
15.725485 -3.289319 0.280429
15.706763 -3.230475 0.279901
15.722002 -3.178704 0.279981
15.708148 -3.121120 0.279546
15.702067 -3.065224 0.279254
15.706977 -3.011548 0.279160
15.701622 -2.955976 0.278887
15.708403 -2.902753 0.278833
15.708943 -2.848419 0.278671
15.717376 -2.795551 0.278653
15.704338 -2.738944 0.278258
15.697942 -2.683627 0.277983
15.704526 -2.630590 0.277942
15.715463 -2.578283 0.277981
15.718214 -2.524645 0.277879
15.705506 -2.468617 0.277506
15.716719 -2.416410 0.277559
15.706925 -2.361025 0.277245
15.702795 -2.306592 0.277034
15.700077 -2.252444 0.276851
15.693149 -2.197777 0.276598
15.712896 -2.146851 0.276817
15.708827 -2.092668 0.276621
15.691407 -2.036827 0.276192
15.692590 -1.983503 0.276094
15.711903 -1.932445 0.276318
15.705273 -1.878198 0.276090
15.695352 -1.823657 0.275806
15.701826 -1.771073 0.275814
15.707519 -1.718401 0.275811
15.698038 -1.664121 0.275545
15.710851 -1.612230 0.275674
15.694812 -1.557426 0.275299
15.684671 -1.503332 0.275031
15.714054 -1.452995 0.275459
15.697673 -1.398415 0.275089
15.701911 -1.345744 0.275082
15.700006 -1.292570 0.274971
15.700212 -1.239605 0.274901
15.698426 -1.186516 0.274798
15.685709 -1.132676 0.274508
15.700438 -1.080837 0.274700
15.708173 -1.028465 0.274774
15.691713 -0.974562 0.274427
15.707568 -0.922690 0.274649
15.695408 -0.869180 0.274384
15.709185 -0.817121 0.274575
15.710469 -0.764380 0.274551
15.694728 -0.710877 0.274233
15.706878 -0.658664 0.274405
15.694920 -0.605455 0.274159
15.710538 -0.553312 0.274398
15.708302 -0.500506 0.274328
15.712132 -0.447901 0.274367
15.701849 -0.394924 0.274163
15.707912 -0.342382 0.274247
15.706448 -0.289668 0.274203
15.697492 -0.236857 0.274032
15.701293 -0.184261 0.274086
15.699891 -0.131600 0.274052
15.697577 -0.078947 0.274005
15.686889 -0.026298 0.273816
15.693469 0.026309 0.273930
15.694986 0.078934 0.273960
15.701443 0.131613 0.274079
15.686611 0.184089 0.273829
15.696580 0.236843 0.274016
15.706485 0.289668 0.274204
15.700944 0.342230 0.274126
15.681046 0.394401 0.273800
15.674241 0.446820 0.273706
15.693734 0.500042 0.274074
15.710197 0.553300 0.274392
15.697831 0.605568 0.274210
15.702305 0.658473 0.274325
15.694369 0.710860 0.274227
15.696135 0.763683 0.274301
15.698094 0.816544 0.274381
15.696721 0.869253 0.274407
15.699912 0.922240 0.274515
15.700422 0.975103 0.274580
15.691091 1.027347 0.274475
15.695083 1.080468 0.274607
15.697255 1.133510 0.274710
15.688601 1.185773 0.274626
15.692428 1.238990 0.274764
15.708364 1.293258 0.275118
15.686087 1.344388 0.274805
15.707721 1.399310 0.275265
15.703468 1.452016 0.275274
15.710231 1.505782 0.275479
15.691888 1.557136 0.275248
15.708872 1.612027 0.275639
15.702048 1.664546 0.275616
15.689544 1.716435 0.275496
15.692207 1.769989 0.275645
15.710140 1.825375 0.276066
15.697428 1.877260 0.275952
15.698846 1.930839 0.276089
15.707888 1.985436 0.276363
15.699088 2.037824 0.276327
15.696126 2.090976 0.276397
15.696715 2.144641 0.276532
15.704581 2.199378 0.276799
15.698235 2.252180 0.276819
15.710185 2.307678 0.277165
15.701783 2.360252 0.277154
15.702405 2.414209 0.277307
15.692380 2.466553 0.277274
15.692470 2.520510 0.277423
15.691917 2.574420 0.277565
15.700697 2.629949 0.277874
15.687777 2.681889 0.277803
15.694442 2.737218 0.278082
15.698761 2.792240 0.278323
15.685379 2.844146 0.278253
15.701093 2.901402 0.278703
15.687186 2.953259 0.278631
15.693074 3.008883 0.278913
15.697766 3.064384 0.279177
15.708326 3.121156 0.279549
15.699475 3.174150 0.279580
15.692957 3.227635 0.279655
15.695015 3.282945 0.279886
15.692544 3.337384 0.280040
15.679720 3.389645 0.280012
15.705441 3.450363 0.280677
15.701326 3.504685 0.280812
15.686306 3.556587 0.280755
15.696424 3.614256 0.281151
15.686230 3.667334 0.281187
15.699356 3.725960 0.281645
15.698533 3.781409 0.281856
15.688675 3.834733 0.281908
15.684014 3.889367 0.282057
15.684456 3.945344 0.282301
15.688983 4.002460 0.282623
15.687715 4.058207 0.282844
15.692688 4.115677 0.283180
15.679070 4.168341 0.283185
15.692700 4.228348 0.283686
15.692323 4.284731 0.283937
15.679675 4.337820 0.283970
15.688618 4.396974 0.284397
15.690277 4.454231 0.284696
15.693527 4.512066 0.285028
15.678908 4.564832 0.285039
15.698515 4.627693 0.285676
15.687468 4.681661 0.285759
15.692556 4.740537 0.286140
15.710808 4.803592 0.286765
15.679835 4.851667 0.286495
15.684294 4.910728 0.286875
15.696940 4.972537 0.287410
15.694061 5.029586 0.287664
15.698611 5.089148 0.288059
15.685039 5.142927 0.288125
15.681574 5.200085 0.288380
15.688575 5.260857 0.288831
15.696944 5.322277 0.289312
15.696386 5.380832 0.289633
15.691247 5.437930 0.289873
15.697036 5.498955 0.290319
15.695754 5.557660 0.290638
15.694798 5.616611 0.290967
15.691586 5.674881 0.291259
15.704033 5.738995 0.291845
15.682446 5.790782 0.291803
15.695906 5.855628 0.292417
15.683500 5.910977 0.292554
15.688358 5.972956 0.293016
15.698320 6.037089 0.293579
15.689594 6.094196 0.293796
15.696109 6.157372 0.294303
15.670013 6.207838 0.294202
15.691492 6.277296 0.294999
15.684249 6.335483 0.295261
15.695922 6.401494 0.295883
15.687693 6.459569 0.296134
15.675214 6.515982 0.296309
15.698360 6.587419 0.297163
15.677589 6.640610 0.297189
15.674814 6.701507 0.297561
15.692160 6.771242 0.298320
15.693425 6.834293 0.298778
15.681524 6.891750 0.298989
15.692410 6.959404 0.299640
15.692501 7.022500 0.300090
15.691022 7.085078 0.300514
15.688426 7.147327 0.300922
15.681400 7.207713 0.301249
15.687231 7.274199 0.301827
15.695237 7.341950 0.302453
15.687872 7.402714 0.302788
15.695824 7.470912 0.303423
15.696778 7.536021 0.303928
15.667818 7.586862 0.303859
15.692411 7.663827 0.304832
15.689616 7.727720 0.305279
15.676729 7.786793 0.305535
15.679150 7.853644 0.306094
15.692056 7.926033 0.306863
15.680371 7.986229 0.307156
15.669585 8.047015 0.307472
15.683705 8.120833 0.308281
15.677536 8.184412 0.308698
15.684787 8.255235 0.309384
15.695258 8.328066 0.310139
15.687277 8.391356 0.310536
15.681836 8.456191 0.310987
15.697897 8.532911 0.311872
15.692686 8.598364 0.312339
15.683878 8.662036 0.312740
15.687257 8.732669 0.313389
15.683651 8.799670 0.313905
15.682137 8.868083 0.314468
15.683175 8.938200 0.315088
15.680004 9.006174 0.315629
15.684239 9.078677 0.316325
15.676036 9.144235 0.316777
15.684930 9.220044 0.317579
15.684028 9.290410 0.318190
15.683538 9.361297 0.318815
15.692795 9.438326 0.319645
15.687912 9.507159 0.320193
15.677188 9.572674 0.320627
15.678360 9.645703 0.321311
15.688131 9.724373 0.322177
15.692424 9.800015 0.322938
15.681326 9.866321 0.323389
15.689590 9.945104 0.324245
15.678446 10.011885 0.324707
15.590281 10.029329 0.323575
15.456940 10.016980 0.321503
15.362749 10.029240 0.320242
15.246678 10.026531 0.318521
15.143032 10.031260 0.317057
15.019092 10.021773 0.315163
14.904778 10.017881 0.313468
14.810108 10.026503 0.312182
14.695875 10.021186 0.310480
14.603492 10.030085 0.309237
14.495382 10.027524 0.307658
14.384665 10.022408 0.306020
14.274483 10.016899 0.304389
14.181510 10.022786 0.303121
14.077008 10.019871 0.301604
13.975679 10.018514 0.300151
13.889386 10.027323 0.299018
13.785078 10.022497 0.297494
13.698379 10.029840 0.296347
13.581176 10.014145 0.294536
13.495353 10.020885 0.293402
13.407180 10.025323 0.292214
13.313357 10.024938 0.290900
13.213980 10.019708 0.289461
13.123959 10.020926 0.288223
13.038751 10.025247 0.287089
12.939386 10.018057 0.285639
12.852443 10.019845 0.284460
12.763831 10.019749 0.283240
12.671394 10.016032 0.281933
12.589532 10.020090 0.280857
12.502718 10.019651 0.279668
12.423851 10.025040 0.278655
12.331431 10.018915 0.277334
12.252976 10.023561 0.276323
12.150623 10.008018 0.274770
12.086335 10.023272 0.274075
11.998065 10.018151 0.272833
11.915351 10.017079 0.271715
11.834644 10.017146 0.270639
11.755130 10.017685 0.269587
11.677519 10.019325 0.268576
11.599539 10.020135 0.267554
11.519045 10.018239 0.266470
11.438291 10.015562 0.265377
11.371504 10.024639 0.264606
11.290842 10.021007 0.263510
11.215726 10.021765 0.262539
11.131768 10.014070 0.261358
11.062847 10.019381 0.260528
10.986670 10.017645 0.259523
10.913003 10.017690 0.258575
10.846679 10.024025 0.257798
10.762766 10.013590 0.256600
10.688617 10.011670 0.255631
10.623488 10.017746 0.254876
10.554743 10.019988 0.254031
10.474915 10.011190 0.252916
10.409105 10.015287 0.252136
10.351138 10.026564 0.251545
10.269974 10.014903 0.250387
10.194260 10.007972 0.249358
10.141679 10.023348 0.248893
10.061941 10.011451 0.247758
9.999825 10.016590 0.247054
9.924845 10.008372 0.246029
9.865895 10.015870 0.245399
9.796567 10.012414 0.244508
9.731537 10.012891 0.243722
9.671722 10.018335 0.243064
9.604982 10.016193 0.242229
9.533578 10.008691 0.241273
9.478174 10.017565 0.240720
9.418766 10.021870 0.240063
9.353590 10.019627 0.239257
9.288793 10.017337 0.238457
9.227456 10.018353 0.237743
9.168227 10.021266 0.237082
9.106846 10.021434 0.236362
9.044386 10.019994 0.235611
8.986051 10.022725 0.234966
8.913616 10.009251 0.233948
8.860188 10.016674 0.233426
8.798763 10.014692 0.232691
8.741119 10.016616 0.232053
8.675763 10.009267 0.231208
8.619818 10.012352 0.230610
8.561438 10.012239 0.229945
8.510822 10.020873 0.229487
8.453628 10.021436 0.228849
8.392642 10.017095 0.228106
8.332835 10.013722 0.227392
8.269799 10.006014 0.226586
8.216563 10.009757 0.226046
8.160869 10.010157 0.225436
8.112280 10.018961 0.225020
8.058636 10.021224 0.224463
8.002818 10.020424 0.223843
7.933984 10.002830 0.222854
7.883081 10.007387 0.222366
7.824955 10.002406 0.221671
7.778839 10.012450 0.221314
7.733251 10.022955 0.220972
7.675278 10.017080 0.220274
7.617361 10.010838 0.219574
7.568708 10.016410 0.219138
7.511478 10.010274 0.218452
7.463427 10.016014 0.218030
7.402003 10.003412 0.217214
7.361041 10.018127 0.216996
7.305999 10.013405 0.216362
7.250914 10.008209 0.215723
7.192330 9.997729 0.214977
7.156591 10.018739 0.214911
7.100204 10.010593 0.214225
7.052191 10.013882 0.213788
7.006814 10.020648 0.213429
6.950535 10.011470 0.212736
6.903454 10.015169 0.212322
6.849924 10.009162 0.211707
6.802701 10.012019 0.211283
6.752976 10.010878 0.210780
6.702494 10.008257 0.210251
6.653481 10.007480 0.209765
6.614542 10.021629 0.209595
6.559431 10.010977 0.208911
6.510177 10.008849 0.208410
6.466405 10.014858 0.208083
6.417994 10.013397 0.207604
6.367502 10.008323 0.207055
6.327466 10.019411 0.206844
6.274972 10.010474 0.206224
6.227191 10.008662 0.205756
6.180391 10.008096 0.205317
6.131144 10.003215 0.204794
6.094201 10.018177 0.204681
6.042111 10.007965 0.204057
5.999293 10.012765 0.203744
5.951751 10.009383 0.203268
5.906338 10.009252 0.202862
5.864049 10.014146 0.202561
5.817628 10.011702 0.202116
5.773753 10.013330 0.201757
5.727658 10.010803 0.201318
5.682461 10.009517 0.200908
5.642291 10.016835 0.200674
5.598608 10.017682 0.200314
5.548530 10.006715 0.199721
5.509951 10.016176 0.199540
5.462502 10.009242 0.199036
5.414632 10.001125 0.198513
5.376120 10.010006 0.198330
5.333680 10.011369 0.198002
5.287809 10.005968 0.197543
5.248307 10.012339 0.197320
5.202537 10.006470 0.196860
5.154643 9.996096 0.196315
5.123954 10.018906 0.196424
5.075860 10.007492 0.195866
5.029880 9.999806 0.195384
4.989930 10.003795 0.195134
4.953585 10.014856 0.195025
4.909915 10.010889 0.194626
4.870542 10.015407 0.194395
4.827149 10.011386 0.194002
4.787019 10.013838 0.193737
4.739748 10.000989 0.193180
4.701516 10.006876 0.192988
4.657855 10.000933 0.192571
4.619634 10.006392 0.192377
4.582971 10.015078 0.192248
4.537574 10.004388 0.191749
4.496069 10.001889 0.191411
4.460325 10.012005 0.191318
4.421268 10.014528 0.191082
4.381387 10.014941 0.190808
4.337991 10.006984 0.190378
4.301538 10.014773 0.190251
4.259826 10.010082 0.189890
4.220982 10.011835 0.189653
4.176583 10.000055 0.189164
4.144516 10.017593 0.189232
4.102871 10.011825 0.188862
4.060305 10.003412 0.188445
4.023040 10.007760 0.188272
3.985143 10.010338 0.188068
3.945894 10.009277 0.187798
3.905054 10.003857 0.187450
3.866491 10.003957 0.187208
3.830398 10.010251 0.187084
3.790365 10.006012 0.186767
3.750794 10.002662 0.186468
3.712146 10.001467 0.186213
3.678979 10.014910 0.186233
3.634670 9.997729 0.185685
3.603201 10.015619 0.185792
3.557074 9.992455 0.185140
3.524225 10.006237 0.185176
3.488160 10.010833 0.185043
3.448030 10.003481 0.184693
3.413834 10.013116 0.184658
3.371549 9.998724 0.184183
3.333266 9.995759 0.183922
3.306426 10.027175 0.184295
3.258173 9.993376 0.183472
3.229798 10.020220 0.183765
3.184113 9.993106 0.183071
3.149665 10.000792 0.183017
3.114058 10.004681 0.182896
3.076881 10.003310 0.182681
3.044520 10.017504 0.182753
3.000470 9.992864 0.182119
2.970131 10.013597 0.182314
2.930630 10.003324 0.181947
2.890816 9.991463 0.181554
2.856925 9.999787 0.181531
2.821060 10.001077 0.181381
2.786845 10.008084 0.181338
2.750322 10.006629 0.181143
2.715725 10.011995 0.181075
2.679622 10.011630 0.180905
2.637773 9.989249 0.180339
2.604466 9.998805 0.180353
2.568210 9.996907 0.180163
2.538411 10.020197 0.180428
2.497520 9.999501 0.179903
2.463428 10.005577 0.179863
2.426230 9.998789 0.179594
2.391036 9.999942 0.179470
2.357896 10.009605 0.179500
2.316651 9.984390 0.178908
2.286306 10.005864 0.179154
2.250914 10.005332 0.179008
2.215294 10.003513 0.178842
2.183620 10.019503 0.178996
2.144553 10.001300 0.178541
2.113631 10.020866 0.178763
2.074551 10.001525 0.178293
2.041061 10.008696 0.178298
2.004742 10.001762 0.178054
1.967906 9.991715 0.177756
1.936038 10.006752 0.177907
1.899722 9.998691 0.177650
1.865302 10.000257 0.177565
1.831123 10.002964 0.177503
1.797939 10.011071 0.177539
1.760916 9.997469 0.177192
1.726784 9.999828 0.177131
1.693107 10.004740 0.177116
1.659555 10.010367 0.177116
1.624154 10.004608 0.176917
1.589838 10.005193 0.176832
1.555962 10.008403 0.176796
