# .PCD v0.7 - Point Cloud Data file format
VERSION 0.7
FIELDS x y z intensity
SIZE 4 4 4 4
TYPE F F F F
COUNT 1 1 1 1
WIDTH 80
HEIGHT 1
VIEWPOINT 0 0 0 1 0 0 0
POINTS 80
DATA ascii
9.8819361 -2.9130499 -0.90133798 0
9.8896971 -2.879334 -0.90116 0
9.8920498 -2.8440759 -0.90050101 0
9.8787699 -2.8044331 -0.898431 0
9.889967 -2.7718141 -0.89859903 0
9.8775358 -2.7326441 -0.89663202 0
9.8932123 -2.7013049 -0.897228 0
9.8828468 -2.6629021 -0.895473 0
9.9004898 -2.6320829 -0.896267 0
9.9100952 -2.599093 -0.89634198 0
9.9005117 -2.5611329 -0.89469397 0
9.9022102 -2.526181 -0.894077 0
9.9050055 -2.4915531 -0.89357001 0
9.816741 -3.037504 -0.53853798 0
9.8172379 -3.0016279 -0.53801 0
9.8341236 -2.970773 -0.538387 0
9.8244534 -2.9319429 -0.53731602 0
9.8255615 -2.8964319 -0.536843 0
9.8326483 -2.8627241 -0.53670198 0
9.8130093 -2.8213511 -0.53511101 0
9.8329458 -2.791424 -0.535685 0
9.840024 -2.7578161 -0.53556401 0
9.836153 -2.721195 -0.53485298 0
9.8444691 -2.6879959 -0.53481299 0
9.8390684 -2.6511061 -0.534033 0
9.8492785 -2.618468 -0.53410798 0
9.8458271 -2.582238 -0.53344798 0
9.854723 -2.549288 -0.53346401 0
9.8526058 -2.513526 -0.53289002 0
9.8626499 -2.4808991 -0.53298098 0
9.8614178 -2.4454629 -0.53246802 0
9.8686295 -2.412158 -0.53241801 0
9.8658972 -2.3764629 -0.53183699 0
9.8717299 -2.3428781 -0.53172499 0
9.8689137 -2.3072851 -0.53115398 0
9.8753033 -2.273886 -0.53108501 0
9.884798 -2.2412 -0.53118801 0
9.8851719 -2.2064641 -0.53080797 0
9.8793783 -2.170423 -0.53010303 0
9.8901196 -2.1380479 -0.53029197 0
9.8793526 -2.101074 -0.52933401 0
9.8873844 -2.068156 -0.52938998 0
9.8898401 -2.0340841 -0.52915299 0
9.8858347 -1.998737 -0.52857703 0
9.7467051 -3.1596689 -0.178845 0
9.7533579 -3.1257269 -0.178774 0
9.763814 -3.093019 -0.178775 0
9.7632132 -3.0568471 -0.17857499 0
9.7661171 -3.0218401 -0.178442 0
9.7738028 -2.988348 -0.178398 0
9.7641487 -2.949635 -0.17804 0
9.7888813 -2.9213271 -0.178312 0
9.7879229 -2.8853359 -0.17811701 0
9.7845516 -2.848721 -0.177881 0
9.7798252 -2.81181 -0.177623 0
9.7875462 -2.7785361 -0.17759299 0
9.7979107 -2.7460141 -0.17761301 0
9.8060598 -2.7128699 -0.177595 0
9.7985811 -2.675467 -0.177296 0
9.8084412 -2.642853 -0.177313 0
9.8058348 -2.6069191 -0.17710701 0
9.7949715 -2.5689001 -0.176754 0
9.8050537 -2.5364389 -0.176781 0
9.8062649 -2.501704 -0.176651 0
9.8335075 -2.473568 -0.176991 0
9.8060493 -2.4317319 -0.176349 0
9.8121729 -2.3983581 -0.176314 0
9.8231821 -2.366174 -0.176368 0
9.8285093 -2.3326199 -0.176322 0
9.8228674 -2.29652 -0.176082 0
9.8273783 -2.262851 -0.176026 0
9.8366108 -2.230274 -0.176056 0
9.8352575 -2.195323 -0.175899 0
9.8216877 -2.157748 -0.17552599 0
9.8252115 -2.124016 -0.17546099 0
9.7598782 -2.4202819 0.175519 0
9.7722969 -2.3886111 0.175597 0
9.7699986 -2.353364 0.175413 0
9.7669249 -2.3180039 0.175218 0
9.7867203 -2.288069 0.17543399 0
