# .PCD v0.7 - Point Cloud Data file format
VERSION 0.7
FIELDS x y z intensity
SIZE 4 4 4 4
TYPE F F F F
COUNT 1 1 1 1
WIDTH 385
HEIGHT 1
VIEWPOINT 0 0 0 1 0 0 0
POINTS 385
DATA ascii
4.6292281 -0.919801 -0.91742003 0
4.6159921 -0.90109497 -0.91419297 0
4.6329622 -0.88829201 -0.91695899 0
4.6271629 -0.87110698 -0.91522801 0
4.637671 -0.85699499 -0.91673303 0
4.6404562 -0.841429 -0.91671997 0
4.6429238 -0.82580799 -0.91665602 0
4.6324301 -0.80792803 -0.91404402 0
4.6354942 -0.79245698 -0.91411901 0
4.641098 -0.777408 -0.91470498 0
4.6440659 -0.76190698 -0.91478199 0
4.655591 -0.74777699 -0.91655302 0
4.6397371 -0.72928101 -0.91294497 0
4.641232 -0.713579 -0.912763 0
4.664845 -0.701208 -0.91693997 0
4.646688 -0.68255502 -0.912916 0
4.6437268 -0.66622198 -0.91188997 0
4.6439729 -0.650374 -0.91150498 0
4.6543422 -0.63592201 -0.91311598 0
4.635323 -0.61749899 -0.90897399 0
4.6371508 -0.60192603 -0.90893102 0
4.6431479 -0.586882 -0.90971601 0
4.6463261 -0.57146299 -0.909958 0
4.644805 -0.55547398 -0.90929103 0
4.6650701 -0.54203898 -0.91289699 0
4.6060929 -0.97959298 -0.745848 0
4.5798802 -0.95797902 -0.74107897 0
4.6098232 -0.94812101 -0.74540597 0
4.6024752 -0.93053699 -0.74370903 0
4.6021981 -0.91443098 -0.74316502 0
4.596807 -0.897349 -0.741804 0
4.6018 -0.88231802 -0.74212801 0
4.604537 -0.86684698 -0.74209702 0
4.6068249 -0.85129499 -0.74200201 0
4.6010199 -0.834279 -0.74061197 0
4.6061692 -0.81927001 -0.74099398 0
4.6068792 -0.80347103 -0.74067098 0
4.598814 -0.78618598 -0.73894602 0
4.6349611 -0.77638 -0.74433202 0
4.6131902 -0.756841 -0.74042398 0
4.6221151 -0.74239999 -0.74145299 0
4.6191049 -0.72603798 -0.74057603 0
4.6244578 -0.71100003 -0.74104702 0
4.62148 -0.69468898 -0.74019301 0
4.6201072 -0.67865002 -0.739604 0
4.6148958 -0.66208601 -0.73841101 0
4.6255441 -0.64779299 -0.73976302 0
4.6428342 -0.63435 -0.74218398 0
4.6298132 -0.61676502 -0.73976701 0
4.6186781 -0.59952903 -0.73766297 0
4.6318469 -0.58545297 -0.73944801 0
4.6339121 -0.56993598 -0.73946899 0
4.634726 -0.554268 -0.73929799 0
4.628284 -0.53776401 -0.73797899 0
4.6221318 -0.52134901 -0.73671502 0
4.640944 -0.50771898 -0.739438 0
4.6315799 -0.49098501 -0.737679 0
4.6390929 -0.47605899 -0.73861802 0
4.6302209 -0.45946601 -0.736956 0
4.6389799 -0.44463301 -0.73810798 0
4.6373172 -0.42878801 -0.737611 0
4.640049 -0.41335499 -0.73782098 0
4.6491671 -0.39846 -0.73905402 0
4.6404529 -0.382045 -0.73746097 0
4.6485901 -0.367028 -0.738554 0
4.6422648 -0.350871 -0.73735899 0
4.6498642 -0.33577001 -0.738383 0
4.6473088 -0.31992599 -0.73780203 0
4.6580839 -0.30498001 -0.73934698 0
4.6484079 -0.28869799 -0.73765302 0
4.6476178 -0.273009 -0.737378 0
4.6508651 -0.25755599 -0.73775202 0
4.6516938 -0.24196 -0.73775101 0
4.6532059 -0.22639801 -0.73786598 0
4.6563001 -0.21090201 -0.73824 0
4.6620941 -0.19550399 -0.73905098 0
4.642663 -0.179098 -0.73587102 0
4.6590328 -0.164087 -0.73837501 0
4.6672192 -0.148709 -0.73958898 0
4.6587639 -0.132806 -0.73817402 0
4.6591821 -0.117185 -0.73817402 0
4.6640048 -0.10166 -0.73887998 0
4.5691619 -1.0520951 -0.57570201 0
4.5631509 -1.0346121 -0.57450497 0
4.57763 -1.02177 -0.57589298 0
4.574306 -1.00494 -0.57504803 0
4.565793 -0.98703402 -0.57355797 0
4.5759802 -0.97318798 -0.57442498 0
4.5754228 -0.95704699 -0.57394898 0
4.5899572 -0.94403499 -0.57537198 0
4.5732641 -0.924631 -0.572887 0
4.5810399 -0.910227 -0.57347602 0
4.5888329 -0.89579302 -0.574072 0
4.578702 -0.87788898 -0.57243299 0
4.5769548 -0.86165398 -0.57185102 0
4.5792689 -0.84620202 -0.57178199 0
4.583755 -0.83114803 -0.57199103 0
4.5851278 -0.81552798 -0.57181799 0
4.5837359 -0.79943502 -0.571307 0
4.5923228 -0.78507602 -0.57204598 0
4.605217 -0.77139801 -0.573327 0
4.5836129 -0.75198901 -0.57032001 0
4.6041741 -0.73951799 -0.57256597 0
4.5777078 -0.719531 -0.56897199 0
4.5925808 -0.70609897 -0.57052302 0
4.5892148 -0.68983901 -0.56981403 0
4.601202 -0.67587298 -0.57101798 0
4.6086521 -0.66118997 -0.57166398 0
4.6258502 -0.64783603 -0.57352501 0
4.597497 -0.62815601 -0.569745 0
4.6056719 -0.61354899 -0.57050002 0
4.6041598 -0.59764397 -0.57006198 0
4.6134868 -0.58313298 -0.57097101 0
4.603653 -0.56621498 -0.569516 0
4.6081238 -0.55108702 -0.56983697 0
4.6018252 -0.53469002 -0.56883401 0
4.6075401 -0.51970297 -0.56932098 0
4.613462 -0.50471199 -0.56984103 0
4.623168 -0.49009401 -0.57083398 0
4.6147699 -0.47356299 -0.56959701 0
4.6227088 -0.45872 -0.57038403 0
4.613965 -0.44223601 -0.56911898 0
4.630733 -0.428179 -0.57100701 0
4.616158 -0.41122699 -0.56903702 0
4.6213741 -0.39607799 -0.56951302 0
4.619699 -0.38033599 -0.56914598 0
4.6263561 -0.36527199 -0.569812 0
4.6302938 -0.34996599 -0.570149 0
4.6223931 -0.33378601 -0.56903499 0
4.6323161 -0.318894 -0.570122 0
4.630394 -0.30316699 -0.56975698 0
4.6329041 -0.28773499 -0.56994402 0
4.634665 -0.272248 -0.57004499 0
4.6305661 -0.25643101 -0.56943202 0
4.6295338 -0.240808 -0.56920302 0
4.6326132 -0.22539601 -0.56948501 0
4.6302509 -0.209722 -0.56910503 0
4.6441188 -0.19475 -0.57072598 0
4.6426301 -0.179097 -0.57046598 0
4.628057 -0.16299599 -0.56860501 0
4.649848 -0.148156 -0.57121801 0
4.6454639 -0.13242701 -0.57062203 0
4.6399341 -0.116701 -0.56989199 0
4.6292701 -0.100903 -0.568537 0
4.6402111 -0.085577004 -0.56984198 0
4.6506581 -0.070173003 -0.57109302 0
4.6380782 -0.05443 -0.56952298 0
4.6437931 -0.038925 -0.57020497 0
4.6467838 -0.02337 -0.57055998 0
4.6549621 -0.0078039998 -0.57155699 0
4.6602092 0.0078119999 -0.57220203 0
4.5395021 -1.109576 -0.40884599 0
4.5420871 -1.094082 -0.408746 0
4.5440979 -1.07846 -0.4086 0
4.5517678 -1.064172 -0.408966 0
4.5658908 -1.051342 -0.40991601 0
4.544765 -1.030444 -0.40770701 0
4.5505309 -1.015722 -0.40791601 0
4.5536299 -1.000397 -0.40789101 0
4.5402431 -0.981511 -0.40639499 0
4.5516829 -0.96802098 -0.40712601 0
4.5461912 -0.95093203 -0.40634701 0
4.5598121 -0.93783498 -0.40728199 0
4.5535598 -0.92064703 -0.406445 0
4.5612731 -0.906299 -0.40685999 0
4.5807929 -0.89422297 -0.40833199 0
4.576735 -0.87751198 -0.40770501 0
4.5705318 -0.86044502 -0.40689299 0
4.574018 -0.84523201 -0.40694901 0
4.5723972 -0.82908797 -0.406555 0
4.5650368 -0.81195402 -0.40565699 0
4.5662012 -0.796377 -0.40551999 0
4.5520029 -0.77818298 -0.404026 0
4.5789528 -0.76699901 -0.406187 0
4.5673022 -0.749313 -0.404928 0
4.5784888 -0.73539299 -0.40569901 0
4.5539479 -0.71579701 -0.40331 0
4.5774698 -0.703776 -0.405182 0
4.5770588 -0.688012 -0.404939 0
4.5757332 -0.67213202 -0.40461999 0
4.5889158 -0.65835798 -0.405588 0
4.5833492 -0.64188403 -0.40490401 0
4.5821719 -0.62606198 -0.404612 0
4.6016569 -0.613015 -0.406149 0
4.575037 -0.59386402 -0.40362099 0
4.5850239 -0.57953501 -0.404329 0
4.5959811 -0.56527102 -0.40512499 0
4.581429 -0.54789501 -0.40367901 0
4.5866289 -0.532924 -0.40397701 0
4.5952749 -0.51832002 -0.40458301 0
4.592113 -0.50237697 -0.404154 0
4.5919189 -0.486781 -0.40399101 0
4.583662 -0.47036999 -0.403124 0
4.5897298 -0.455448 -0.403521 0
4.6018391 -0.441073 -0.40445301 0
4.6036248 -0.42567301 -0.40448201 0
4.5977039 -0.409583 -0.40383899 0
4.59689 -0.39398 -0.40364999 0
4.602201 -0.378896 -0.40400201 0
4.608531 -0.36386499 -0.404448 0
4.596745 -0.34742999 -0.40331 0
4.6207051 -0.333664 -0.40531099 0
4.6101251 -0.31736699 -0.40428799 0
4.6095271 -0.301801 -0.40414399 0
4.6210299 -0.28699699 -0.40506601 0
4.6220059 -0.271505 -0.40507001 0
4.6138482 -0.25550601 -0.404277 0
4.599328 -0.239236 -0.40293199 0
4.6087022 -0.224233 -0.40368599 0
4.6143579 -0.209003 -0.40411699 0
4.6096311 -0.193304 -0.403644 0
4.6178222 -0.17814 -0.40430701 0
4.6270542 -0.16296101 -0.405065 0
4.6151142 -0.14704899 -0.403974 0
4.6164889 -0.13160101 -0.40405399 0
4.6117749 -0.115993 -0.40360501 0
4.6060309 -0.100397 -0.40307099 0
4.6245441 -0.085289001 -0.404663 0
4.6347108 -0.069931999 -0.40553001 0
4.6240969 -0.054265998 -0.40458301 0
4.51542 -1.16808 -0.244433 0
4.512661 -1.151238 -0.244073 0
4.5197701 -1.136925 -0.24425 0
4.5254688 -1.122239 -0.244353 0
4.505888 -1.10136 -0.243095 0
4.5165758 -1.087937 -0.24347299 0
4.5217962 -1.073167 -0.24356 0
4.5291491 -1.058884 -0.243763 0
4.530395 -1.0431679 -0.24364001 0
4.5259638 -1.026181 -0.24321599 0
4.537981 -1.01292 -0.243678 0
4.5208969 -0.99320602 -0.24258 0
4.5450101 -0.98254102 -0.243696 0
4.5350552 -0.96448499 -0.24298701 0
4.534904 -0.94857198 -0.242807 0
4.5073972 -0.927055 -0.24116699 0
4.539001 -0.91770399 -0.24269199 0
4.5390229 -0.901878 -0.24253 0
4.5280132 -0.88392001 -0.24178199 0
4.5492702 -0.87224603 -0.24276 0
4.5396891 -0.85463899 -0.242094 0
4.5424852 -0.839405 -0.242092 0
4.5221381 -0.81997502 -0.240859 0
4.5510869 -0.80947298 -0.242255 0
4.551178 -0.79375702 -0.242117 0
4.5525918 -0.77828401 -0.242052 0
4.5294518 -0.75870699 -0.240685 0
4.5567722 -0.747585 -0.242002 0
4.5504732 -0.73089302 -0.24153601 0
4.5411992 -0.71379298 -0.240916 0
4.5448279 -0.69875699 -0.24098299 0
4.5657768 -0.68631601 -0.24197 0
4.56847 -0.67106497 -0.241992 0
4.5565109 -0.65370899 -0.24124099 0
4.5630202 -0.63903701 -0.24147099 0
4.5571828 -0.62264699 -0.24105 0
4.5631232 -0.60788101 -0.241255 0
4.5627351 -0.59226698 -0.241129 0
4.5670142 -0.577259 -0.24125101 0
4.5649438 -0.561454 -0.241041 0
4.5746179 -0.54707998 -0.24145401 0
4.5594039 -0.52976102 -0.240555 0
4.5670552 -0.51513702 -0.240867 0
4.5760412 -0.50061798 -0.24125101 0
4.574492 -0.484934 -0.241082 0
4.5768118 -0.46966699 -0.24112 0
4.567667 -0.45325801 -0.240557 0
4.5682139 -0.43785101 -0.24050701 0
4.5744038 -0.42297101 -0.240757 0
4.5756769 -0.407621 -0.24075 0
4.5808568 -0.39260599 -0.240952 0
4.5779519 -0.37689999 -0.240732 0
4.5955968 -0.36284399 -0.241594 0
4.5820012 -0.34631601 -0.240817 0
4.573616 -0.330264 -0.240317 0
4.5826082 -0.31547201 -0.240732 0
4.5979071 -0.30103999 -0.241482 0
4.5815859 -0.28454801 -0.240573 0
4.5973792 -0.27005801 -0.24135301 0
4.588748 -0.254116 -0.240854 0
4.5859399 -0.23853999 -0.24066301 0
4.5943589 -0.223535 -0.241065 0
4.5765691 -0.20729101 -0.24009299 0
4.594419 -0.19266599 -0.240995 0
4.600441 -0.177469 -0.24127799 0
4.61378 -0.16249301 -0.241947 0
4.611896 -0.146947 -0.24182101 0
4.5981469 -0.131078 -0.24107599 0
4.5962548 -0.115602 -0.240955 0
4.4971662 -1.1312391 -0.080944002 0
4.5015759 -1.1163141 -0.080954999 0
4.503736 -1.100834 -0.080926999 0
4.5165648 -1.087935 -0.081092 0
4.503396 -1.0688 -0.080789998 0
4.5102358 -1.054462 -0.080848999 0
4.4904442 -1.033969 -0.080431998 0
4.498518 -1.019958 -0.080514997 0
4.512218 -1.00717 -0.080698997 0
4.4983382 -0.98825002 -0.080390997 0
4.509789 -0.97492701 -0.080536999 0
4.5071621 -0.958552 -0.080431998 0
4.509243 -0.94320399 -0.080412 0
4.518414 -0.92932099 -0.080519997 0
4.5108228 -0.91200697 -0.080329999 0
4.5168872 -0.89748001 -0.080384001 0
4.5148659 -0.88135397 -0.080294997 0
4.5034781 -0.86346602 -0.08004 0
4.5148382 -0.84996003 -0.080191001 0
4.5298271 -0.83706599 -0.080407001 0
4.535099 -0.82232499 -0.080450997 0
4.5229292 -0.804465 -0.080187 0
4.5195541 -0.78824103 -0.080080003 0
4.5183601 -0.77243203 -0.080012001 0
4.5332141 -0.75933701 -0.080229998 0
4.5272341 -0.74273902 -0.080078997 0
4.532383 -0.72798699 -0.080127001 0
4.5351639 -0.71284401 -0.080132999 0
4.5246091 -0.69564801 -0.079905003 0
4.5278869 -0.68062001 -0.079921998 0
4.5359879 -0.66629398 -0.080025002 0
4.5257468 -0.64929599 -0.079806 0
4.5326409 -0.63478202 -0.079889998 0
4.5354438 -0.61967701 -0.079902001 0
4.5182219 -0.60189998 -0.079562001 0
4.5474038 -0.59027702 -0.080040999 0
4.533721 -0.57305098 -0.079765998 0
4.54388 -0.55886298 -0.079911001 0
4.5634322 -0.54574198 -0.080222003 0
4.5387521 -0.52736199 -0.079756998 0
4.5344772 -0.51146197 -0.079650998 0
4.5500641 -0.49777699 -0.079894997 0
4.543766 -0.48167601 -0.079755999 0
4.5501652 -0.46693301 -0.079839997 0
4.5501261 -0.451518 -0.079813004 0
4.5565619 -0.43673399 -0.079898998 0
4.552494 -0.42094499 -0.079802997 0
4.550797 -0.405404 -0.079749003 0
4.554121 -0.390315 -0.079783998 0
4.5734611 -0.37652999 -0.0801 0
4.5516739 -0.35937601 -0.079696998 0
4.55406 -0.34420401 -0.079718001 0
4.5565701 -0.32903299 -0.079742 0
4.5693669 -0.31456101 -0.079947002 0
4.5672488 -0.29903299 -0.079892002 0
4.5549488 -0.282893 -0.079659998 0
4.5603242 -0.26788101 -0.079737999 0
4.5573869 -0.252379 -0.079671003 0
4.565474 -0.23747499 -0.079797998 0
4.5719452 -0.222444 -0.079898 0
4.559042 -0.206497 -0.079659998 0
4.5560799 -0.19105799 -0.079595998 0
4.5640998 -0.17606699 -0.079726003 0
4.5104022 -0.70895201 0.079696 0
4.51858 -0.694722 0.079798996 0
4.5073929 -0.67754 0.079561003 0
4.4978032 -0.660685 0.079351999 0
4.523829 -0.64902103 0.079772003 0
4.5305352 -0.63448697 0.079852 0
4.5066428 -0.61574203 0.079393998 0
4.5206828 -0.60222799 0.079605997 0
4.5076771 -0.58512002 0.079342 0
4.5198531 -0.571298 0.079521999 0
4.5154519 -0.55536598 0.079411 0
4.5183959 -0.54035598 0.079430997 0
4.5231481 -0.52554899 0.079483002 0
4.5220499 -0.51006103 0.079433002 0
4.5229192 -0.494807 0.079419002 0
4.5242982 -0.47961301 0.079414003 0
4.5284119 -0.464701 0.079458997 0
4.527267 -0.449249 0.079411998 0
4.5397439 -0.43512201 0.079604998 0
4.5261312 -0.41850701 0.079341002 0
4.545382 -0.40492201 0.079654001 0
4.524776 -0.38779899 0.079269998 0
4.5468049 -0.37433499 0.079632998 0
4.52527 -0.35729101 0.079235002 0
4.544373 -0.343472 0.079548001 0
4.5424838 -0.32801601 0.079496004 0
4.5433359 -0.312769 0.079492003 0
4.5503588 -0.29792699 0.079596996 0
4.5365782 -0.28175199 0.079338998 0
4.535316 -0.26641199 0.079301 0
4.543828 -0.25162801 0.079434 0
4.556263 -0.236996 0.079636998 0
4.5264492 -0.296361 0.237729 0
