# .PCD v0.7 - Point Cloud Data file format
VERSION 0.7
FIELDS x y z intensity
SIZE 4 4 4 4
TYPE F F F F
COUNT 1 1 1 1
WIDTH 145
HEIGHT 1
VIEWPOINT 0 0 0 1 0 0 0
POINTS 145
DATA ascii
7.2503428 1.56738 -0.91079301 0
7.2524371 1.593304 -0.911722 0
7.2588921 1.620253 -0.91321099 0
7.2486839 1.643508 -0.912615 0
7.2692909 1.673826 -0.91591102 0
7.2488279 1.6947269 -0.91404402 0
7.2632451 1.723801 -0.91658503 0
7.2675662 1.750586 -0.91786599 0
7.2441378 1.770661 -0.91565198 0
7.2471561 1.79717 -0.91679001 0
7.2496119 1.823602 -0.91786897 0
7.2592568 1.8519289 -0.91987097 0
7.2540011 1.876515 -0.91999698 0
7.2659268 1.905614 -0.922315 0
7.2739239 1.3693841 -0.64756399 0
7.2826791 1.396331 -0.64875698 0
7.2865491 1.422418 -0.64952201 0
7.2869778 1.447881 -0.64999002 0
7.2816172 1.472211 -0.649948 0
7.2946868 1.5003279 -0.65156001 0
7.2930951 1.5255049 -0.65187103 0
7.2824211 1.548776 -0.65137798 0
7.2845922 1.574784 -0.65204 0
7.291966 1.601988 -0.65317798 0
7.2823758 1.625495 -0.652803 0
7.2838101 1.651473 -0.65342402 0
7.2870278 1.67791 -0.65421402 0
7.2901039 1.7043771 -0.65499902 0
7.2861991 1.729249 -0.65516597 0
7.284296 1.754616 -0.65552002 0
7.277688 1.778862 -0.65545797 0
7.2723989 1.80343 -0.655523 0
7.2723379 1.829319 -0.65606701 0
7.2830148 1.85799 -0.65758801 0
7.28125 1.883564 -0.65799499 0
7.2931442 1.912753 -0.65964597 0
7.2826118 1.93611 -0.65927702 0
7.2765179 1.9606349 -0.65931702 0
7.2973928 1.9925261 -0.66180998 0
7.2722411 2.011883 -0.660137 0
7.2721319 2.038126 -0.660743 0
7.2822251 2.067313 -0.66228598 0
7.2896061 2.095844 -0.66359299 0
7.2771869 2.118715 -0.66310501 0
7.2864289 2.147933 -0.66460001 0
7.2667298 2.168633 -0.663463 0
7.276907 2.1982679 -0.665061 0
7.2947788 2.2303841 -0.66737401 0
7.2836838 2.2537229 -0.66704702 0
7.3160558 1.1750979 -0.38833201 0
7.2922902 1.196375 -0.387281 0
7.3238902 1.22679 -0.38917601 0
7.3198318 1.2513551 -0.38918099 0
7.3073158 1.274446 -0.38874 0
7.3084412 1.299906 -0.38903001 0
7.3218818 1.327638 -0.38997999 0
7.3271971 1.353992 -0.39050299 0
7.317379 1.377565 -0.39022401 0
7.3107882 1.40172 -0.39012 0
7.314343 1.427844 -0.39056301 0
7.320334 1.454509 -0.39114201 0
7.29844 1.475612 -0.39023399 0
7.3085928 1.503188 -0.39104399 0
7.310534 1.529153 -0.39142001 0
7.3156972 1.555853 -0.391974 0
7.322237 1.582922 -0.39260599 0
7.303555 1.604534 -0.391891 0
7.297863 1.628952 -0.39187601 0
7.3032498 1.65588 -0.392461 0
7.315032 1.684358 -0.39339599 0
7.3066888 1.708254 -0.393253 0
7.3236308 1.738132 -0.394476 0
7.3197851 1.763165 -0.39458501 0
7.3109722 1.786997 -0.39443099 0
7.3032961 1.811092 -0.39434201 0
7.3054171 1.83764 -0.39478701 0
7.3035879 1.863239 -0.395024 0
7.3229208 1.894344 -0.396411 0
7.2954059 1.9133461 -0.395266 0
7.2941241 1.939171 -0.395547 0
7.3069601 1.968837 -0.39659801 0
7.303977 1.994324 -0.396797 0
7.30515 2.020987 -0.39722699 0
7.3104191 2.048856 -0.39788499 0
7.2901778 2.069571 -0.397158 0
7.3175459 2.1038771 -0.39903101 0
7.303236 2.1262989 -0.39863801 0
7.3127122 2.1556799 -0.39954701 0
7.3153892 2.1831551 -0.40009099 0
7.2945361 2.203594 -0.39935201 0
7.3074141 2.234247 -0.40046501 0
7.291532 2.2561519 -0.40000701 0
7.295001 2.2840531 -0.40061501 0
7.3023572 2.3132689 -0.401443 0
7.3019938 2.340122 -0.40185201 0
7.2890182 2.362941 -0.40157199 0
7.301897 2.3942001 -0.40272099 0
7.3301339 1.329134 -0.130034 0
7.3488922 1.358001 -0.130447 0
7.3426032 1.382313 -0.130417 0
7.33497 1.406357 -0.130364 0
7.3314362 1.43118 -0.13038599 0
7.322773 1.454994 -0.130318 0
7.3252869 1.48104 -0.13045 0
7.3396149 1.509569 -0.130795 0
7.348886 1.537176 -0.131051 0
7.3417869 1.561401 -0.131017 0
7.3355532 1.585801 -0.131 0
7.3428402 1.613165 -0.131226 0
7.3355651 1.637368 -0.131194 0
7.346746 1.665743 -0.131493 0
7.3397832 1.690058 -0.131469 0
7.3411078 1.716301 -0.131595 0
7.3281422 1.739203 -0.131466 0
7.318398 1.76283 -0.13139699 0
7.3487711 1.796236 -0.13204899 0
7.3286619 1.817382 -0.131797 0
7.3381548 1.845875 -0.13207801 0
7.3209682 1.867673 -0.131881 0
7.3391089 1.898531 -0.132321 0
7.3379459 1.924503 -0.132416 0
7.3339019 1.949746 -0.13246 0
7.3372951 1.977011 -0.13264 0
7.332808 2.0021961 -0.13268 0
7.3139839 2.023432 -0.132461 0
7.3305621 2.054502 -0.13288601 0
7.3393359 2.0835259 -0.13317101 0
7.3164692 2.1035669 -0.132883 0
7.3294911 2.1339431 -0.133249 0
7.327477 2.160033 -0.133343 0
7.3354049 2.1891279 -0.13361999 0
7.339376 2.217139 -0.133827 0
7.368021 1.69656 0.131974 0
7.3621979 1.7212321 0.131973 0
7.3733401 1.74993 0.132277 0
7.3616319 1.773245 0.132173 0
7.358952 1.798725 0.132232 0
7.363235 1.825956 0.13241801 0
7.3510332 1.8491139 0.13231 0
7.3564539 1.876726 0.13252001 0
7.354383 1.902483 0.132597 0
7.3558221 1.929191 0.13273899 0
7.3747439 1.960604 0.13319799 0
7.3678288 1.985238 0.133192 0
7.3729868 2.0131669 0.133407 0
