# .PCD v0.7 - Point Cloud Data file format
VERSION 0.7
FIELDS x y z intensity
SIZE 4 4 4 4
TYPE F F F F
COUNT 1 1 1 1
WIDTH 404
HEIGHT 1
VIEWPOINT 0 0 0 1 0 0 0
POINTS 404
DATA ascii
4.4640088 0.427863 -1.035319 0
4.4546919 0.44204801 -1.033496 0
4.45469 0.45713499 -1.0338449 0
4.4460931 0.471322 -1.0322109 0
4.4653621 0.48851001 -1.0370589 0
4.4573851 0.50276703 -1.035592 0
4.4507842 0.51714098 -1.034456 0
4.4521961 0.53243899 -1.035193 0
4.476583 0.308173 -0.87221801 0
4.480835 0.32356399 -0.87325299 0
4.4656372 0.33752099 -0.87050599 0
4.4797621 0.35369799 -0.87348598 0
4.4825439 0.36904499 -0.87426502 0
4.4737549 0.38342699 -0.87279701 0
4.4761992 0.39875901 -0.87352902 0
4.478312 0.41408601 -0.87420797 0
4.484344 0.42981201 -0.87566203 0
4.4660201 0.44317201 -0.87236899 0
4.4841609 0.46015999 -0.87620902 0
4.4748902 0.47437501 -0.87470299 0
4.474143 0.48947099 -0.87487298 0
4.4772329 0.50500602 -0.87580299 0
4.4712572 0.51951897 -0.87497002 0
4.4755411 0.53523099 -0.87615401 0
4.4710321 0.54990298 -0.87562799 0
4.4743729 0.56554902 -0.87664902 0
4.4633842 0.57937098 -0.87487102 0
4.4716992 0.59570199 -0.87688798 0
4.4774332 0.61175102 -0.87840903 0
4.4729948 0.62642902 -0.87794602 0
4.477345 0.64235198 -0.87921798 0
4.4739099 0.657175 -0.87897098 0
4.4628072 0.670838 -0.877226 0
4.4671421 0.686813 -0.87852597 0
4.4648418 0.70179099 -0.87853199 0
4.4727278 0.71840501 -0.88055199 0
4.466115 0.73271197 -0.87972897 0
4.4644961 0.74782598 -0.87989902 0
4.5037751 0.18886501 -0.71395397 0
4.4993 0.20379101 -0.71334898 0
4.5044022 0.21915799 -0.71427 0
4.503294 0.23424099 -0.71421498 0
4.4919538 0.24875499 -0.71254498 0
4.490962 0.263807 -0.712524 0
4.4930978 0.27905199 -0.71300697 0
4.4841781 0.293594 -0.71174401 0
4.495419 0.30947 -0.71368802 0
4.494246 0.32453299 -0.71367103 0
4.4886799 0.33926299 -0.712964 0
4.501811 0.35543901 -0.71523499 0
4.5006428 0.37053499 -0.71524298 0
4.50388 0.38600901 -0.71595901 0
4.4941988 0.40036201 -0.71462899 0
4.4923539 0.41538399 -0.714553 0
4.4954238 0.43087399 -0.715267 0
4.491437 0.445694 -0.714867 0
4.4905081 0.46081099 -0.71495998 0
4.4879999 0.47576499 -0.71481103 0
4.5005188 0.492356 -0.71706402 0
4.4974952 0.50729102 -0.71684903 0
4.4820352 0.52077198 -0.71465898 0
4.4782372 0.53555399 -0.71433598 0
4.492887 0.55259103 -0.71696401 0
4.482398 0.56656301 -0.71559 0
4.4843998 0.58209902 -0.71621698 0
4.4837689 0.59731001 -0.71643198 0
4.4929638 0.613873 -0.71822602 0
4.478466 0.627195 -0.71623999 0
4.504076 0.64618701 -0.72067899 0
4.4746122 0.657278 -0.716313 0
4.4885812 0.674712 -0.718907 0
4.4804459 0.68885899 -0.71797001 0
4.494802 0.70649999 -0.72064602 0
4.4751668 0.71879703 -0.71788001 0
4.4849191 0.73579699 -0.719836 0
4.4762182 0.74979001 -0.71883899 0
4.4854331 0.76680303 -0.72072798 0
4.4850769 0.78222799 -0.72108799 0
4.4770699 0.79630798 -0.72022599 0
4.4895329 0.81406301 -0.72266603 0
4.4962788 0.83086699 -0.72419602 0
4.4973001 0.846659 -0.724814 0
4.4808712 0.85913199 -0.72262597 0
4.493844 0.87725002 -0.72518897 0
4.4836812 0.89088202 -0.72402698 0
4.4766569 0.90509897 -0.723378 0
4.4786291 0.92113799 -0.72419202 0
4.5028529 0.94186699 -0.728616 0
4.4817958 0.95315802 -0.725721 0
4.4811468 0.96873498 -0.726138 0
4.51193 0.083212003 -0.55408901 0
4.506248 0.098222002 -0.55342799 0
4.5138092 0.113529 -0.55440098 0
4.5024691 0.12835 -0.55305701 0
4.490284 0.14307199 -0.55161703 0
4.5161319 0.159054 -0.55485398 0
4.5030632 0.173713 -0.55331701 0
4.5156298 0.189362 -0.55493599 0
4.510828 0.204313 -0.55442703 0
4.5079002 0.219328 -0.55415398 0
4.5075221 0.23446099 -0.55420101 0
4.508718 0.24968401 -0.55444801 0
4.5138121 0.265149 -0.55518103 0
4.5056801 0.27983299 -0.55429298 0
4.5119829 0.295414 -0.55518699 0
4.5234451 0.31139901 -0.556723 0
4.5080318 0.325528 -0.55495697 0
4.5086312 0.34077099 -0.55516797 0
4.517251 0.35665801 -0.55637401 0
4.4924421 0.36985999 -0.55346799 0
4.5137691 0.38685599 -0.556252 0
4.5157371 0.40228099 -0.55665803 0
4.5143218 0.41741499 -0.55665302 0
4.5103078 0.4323 -0.55633301 0
4.4998598 0.44653001 -0.55522603 0
4.516222 0.46345001 -0.55743402 0
4.5013962 0.47718501 -0.55579799 0
4.516314 0.494084 -0.557841 0
4.5005789 0.50763899 -0.55610502 0
4.5059438 0.52354997 -0.55698198 0
4.5052519 0.53878403 -0.55711597 0
4.4995961 0.55341601 -0.55664301 0
4.48631 0.56705803 -0.55523199 0
4.4923658 0.58313298 -0.55622 0
4.4980779 0.59921598 -0.55717301 0
4.507133 0.61580902 -0.55854702 0
4.4919801 0.62908798 -0.55692798 0
4.5074949 0.64667702 -0.55911702 0
4.511848 0.66274798 -0.55992901 0
4.505373 0.67723602 -0.55940402 0
4.4966869 0.691356 -0.55861002 0
4.4862232 0.70515198 -0.55760098 0
4.5019789 0.723104 -0.55985802 0
4.5018439 0.73857403 -0.56014597 0
4.5080819 0.75512701 -0.561234 0
4.49295 0.76808798 -0.55966699 0
4.5030999 0.78537202 -0.561257 0
4.5047669 0.80123502 -0.56179601 0
4.5156422 0.81879699 -0.56349099 0
4.4971552 0.831029 -0.56152898 0
4.50174 0.84749401 -0.56245297 0
4.5003262 0.86286199 -0.562635 0
4.5012622 0.87869799 -0.56311703 0
4.5057921 0.895275 -0.56405598 0
4.497097 0.90923101 -0.56334603 0
4.4876242 0.922988 -0.56254399 0
4.5002079 0.94131398 -0.56451398 0
4.502676 0.95759898 -0.56522298 0
4.4947629 0.97167897 -0.56463498 0
4.4871802 0.98579901 -0.56409502 0
4.5009661 1.004658 -0.566248 0
4.498239 1.019895 -0.56633198 0
4.4991059 1.035964 -0.56687498 0
4.5062718 1.0535361 -0.56822002 0
4.4939189 1.066551 -0.56711 0
4.4997501 1.083884 -0.56830102 0
4.4929729 1.0982029 -0.56790698 0
4.4954548 1.114796 -0.56869 0
4.4887228 1.129115 -0.56831402 0
4.5000582 1.148023 -0.570234 0
4.5001159 1.164121 -0.570732 0
4.500268 1.1802731 -0.57125002 0
4.5273042 -0.037949 -0.396101 0
4.5288892 -0.022777 -0.396231 0
4.527597 -0.0075900001 -0.39611301 0
4.5312152 0.0075960001 -0.39642999 0
4.5211592 0.022738 -0.39555499 0
4.535656 0.038019001 -0.39683199 0
4.5349331 0.053219002 -0.39678201 0
4.5163341 0.068145998 -0.395172 0
4.5242181 0.083438002 -0.39588401 0
4.5267301 0.098668002 -0.39613101 0
4.5244331 0.113796 -0.39596099 0
4.5393958 0.129403 -0.397306 0
4.5272179 0.14424901 -0.396281 0
4.5267749 0.159429 -0.39628601 0
4.5180278 0.17429 -0.39557001 0
4.5292091 0.18993101 -0.396602 0
4.5232601 0.20487601 -0.396139 0
4.5211992 0.21997499 -0.39602101 0
4.5278869 0.23552001 -0.39667401 0
4.531702 0.25095701 -0.39707899 0
4.5311298 0.266166 -0.39710501 0
4.522922 0.280904 -0.39646599 0
4.526361 0.29635599 -0.396853 0
4.526814 0.31163099 -0.39698201 0
4.515821 0.32609099 -0.39611101 0
4.541173 0.34323001 -0.39843401 0
4.5234718 0.357149 -0.39698401 0
4.5183802 0.371995 -0.396644 0
4.515799 0.38703001 -0.39652899 0
4.51403 0.40212899 -0.39649001 0
4.5172572 0.417687 -0.39689401 0
4.522748 0.43349299 -0.39750201 0
4.5188179 0.44841099 -0.397286 0
4.5286531 0.46472499 -0.39828601 0
4.5249529 0.479682 -0.39809999 0
4.5189691 0.49437499 -0.397717 0
4.511199 0.50883698 -0.397181 0
4.5350542 0.526932 -0.399434 0
4.5178661 0.54029298 -0.39807799 0
4.526711 0.55675101 -0.39901999 0
4.5247731 0.57191998 -0.39901501 0
4.506629 0.584984 -0.39758599 0
4.5194068 0.60205799 -0.39888901 0
4.5123439 0.616521 -0.39844599 0
4.5176482 0.63268298 -0.39910001 0
4.5214911 0.64868498 -0.399629 0
4.5186691 0.66374999 -0.39957401 0
4.5177441 0.67909598 -0.39969099 0
4.5211358 0.69511497 -0.400195 0
4.5245881 0.711182 -0.40070999 0
4.5141292 0.72505498 -0.39999601 0
4.509223 0.739784 -0.39977899 0
4.5132771 0.755997 -0.400361 0
4.527369 0.77397197 -0.40183899 0
4.5035052 0.78544199 -0.39995301 0
4.5183492 0.80365002 -0.401508 0
4.5310369 0.82158899 -0.40287799 0
4.513638 0.83407402 -0.401577 0
4.5169511 0.85035801 -0.402123 0
4.5175428 0.86616302 -0.40243199 0
4.513423 0.88107198 -0.40232599 0
4.5156379 0.897232 -0.40279001 0
4.523026 0.91447401 -0.40371999 0
4.5071678 0.92700797 -0.40257901 0
4.5228591 0.94605201 -0.40426201 0
4.5083342 0.95880198 -0.403249 0
4.5177288 0.97664398 -0.40437999 0
4.5255408 0.99422598 -0.405375 0
4.5113811 1.006983 -0.40440699 0
4.4997549 1.020239 -0.403669 0
4.5334802 1.043879 -0.407006 0
4.5170951 1.056066 -0.40585101 0
4.5054312 1.069283 -0.405123 0
4.506196 1.0854371 -0.405516 0
4.5186372 1.104476 -0.40696701 0
4.5088558 1.118119 -0.40642101 0
4.5157051 1.135902 -0.40738001 0
4.5082712 1.150118 -0.40705499 0
4.50247 1.16473 -0.406881 0
4.5104442 1.182941 -0.407958 0
4.5169201 1.20084 -0.40890601 0
4.5365291 -0.038026001 -0.237757 0
4.5385342 -0.022825999 -0.237857 0
4.539341 -0.0076100002 -0.23789699 0
4.5501928 0.0076279999 -0.238465 0
4.5265622 0.022764999 -0.23723 0
4.5347052 0.038011 -0.237662 0
4.5519428 0.053419001 -0.238573 0
4.5256138 0.068286002 -0.237204 0
4.540659 0.083741002 -0.238006 0
4.542459 0.099010997 -0.238116 0
4.5340052 0.114037 -0.237692 0
4.5476179 0.129637 -0.238427 0
4.5433521 0.14476299 -0.23822699 0
4.5523958 0.160331 -0.238729 0
4.5273919 0.174651 -0.23744699 0
4.5416131 0.19045199 -0.238225 0
4.5214272 0.20479301 -0.23720101 0
4.530889 0.220447 -0.237734 0
4.554904 0.236926 -0.239035 0
4.5409441 0.251468 -0.238345 0
4.5498099 0.26726401 -0.238856 0
4.5448532 0.28226599 -0.238644 0
4.5437489 0.29749399 -0.238637 0
4.550806 0.313283 -0.239062 0
4.5325851 0.327301 -0.238161 0
4.5438929 0.343436 -0.238814 0
4.5366588 0.35819 -0.23849601 0
4.5310402 0.37303701 -0.23826499 0
4.5344009 0.38862401 -0.238509 0
4.5318961 0.40371999 -0.238447 0
4.5273671 0.418621 -0.238281 0
4.5434031 0.43547201 -0.23920099 0
4.5350699 0.45002401 -0.23884 0
4.5451641 0.46641999 -0.239452 0
4.545887 0.48190099 -0.239574 0
4.5492091 0.49768299 -0.23983601 0
4.5508518 0.513309 -0.240012 0
4.539351 0.52743101 -0.23949701 0
4.5317059 0.54194802 -0.239189 0
4.5401182 0.55839998 -0.23973 0
4.53089 0.57269299 -0.239343 0
4.5357041 0.58875799 -0.2397 0
4.5321879 0.60376 -0.23962 0
4.5403328 0.620345 -0.240159 0
4.5243478 0.63362098 -0.239425 0
4.526134 0.649351 -0.23963299 0
4.5328841 0.665838 -0.240107 0
4.537498 0.68206501 -0.24047101 0
4.5317979 0.69675398 -0.240292 0
4.5336909 0.71261299 -0.240518 0
4.5385141 0.72897202 -0.24090201 0
4.5306811 0.74330503 -0.24061701 0
4.530724 0.75892001 -0.240753 0
4.5248241 0.77353698 -0.240576 0
4.5362401 0.79115099 -0.241322 0
4.5279231 0.80535299 -0.24102201 0
4.5424051 0.82365 -0.24193899 0
4.5362182 0.838247 -0.241758 0
4.5356178 0.853872 -0.241877 0
4.5396862 0.870408 -0.242248 0
4.521626 0.88267303 -0.241441 0
4.5402598 0.90212399 -0.242596 0
4.5475931 0.91944098 -0.24315099 0
4.5332432 0.93237102 -0.24255 0
4.5378418 0.94918603 -0.242965 0
4.5297709 0.96336102 -0.242704 0
4.5178928 0.97667903 -0.24224199 0
4.5308871 0.99540102 -0.24311601 0
4.5347371 1.0121959 -0.243503 0
4.529973 1.02709 -0.243431 0
4.525744 1.042097 -0.24338999 0
4.5301118 1.059109 -0.243815 0
4.534493 1.07618 -0.244243 0
4.5462871 0.17538001 -0.079415001 0
4.552649 0.19091401 -0.079536997 0
4.540401 0.205653 -0.079333998 0
4.5553608 0.221637 -0.079608001 0
4.5523009 0.23679 -0.079567999 0
4.5517139 0.252065 -0.079572 0
4.5660009 0.268215 -0.079837002 0
4.5620022 0.28333101 -0.079783 0
4.5522408 0.29804999 -0.079630002 0
4.555562 0.31360999 -0.079705998 0
4.5424371 0.328013 -0.079494998 0
4.5452938 0.34354201 -0.079565004 0
4.5610032 0.36011201 -0.079860002 0
4.5536008 0.37489501 -0.079751998 0
4.565587 0.39129701 -0.079985 0
4.5478411 0.405141 -0.079696998 0
4.563211 0.42193601 -0.079990998 0
4.531332 0.434315 -0.079457 0
4.5632501 0.45282 -0.080043003 0
4.5460982 0.46651599 -0.079769 0
4.5604219 0.48344201 -0.080048002 0
4.5513229 0.49791399 -0.079917997 0
4.5529962 0.513551 -0.079976998 0
4.5597372 0.5298 -0.080126002 0
4.559319 0.54525 -0.080150001 0
4.5565329 0.56041902 -0.080133997 0
4.5601759 0.57639402 -0.080231003 0
4.5462461 0.59012699 -0.080021001 0
4.5534 0.60658598 -0.080182001 0
4.5478892 0.621378 -0.080121003 0
4.5657229 0.63941503 -0.080472998 0
4.5469851 0.65234298 -0.080179997 0
4.555728 0.66919398 -0.080374002 0
4.5403242 0.68248999 -0.080141999 0
4.5512199 0.69973999 -0.080375001 0
4.5458202 0.71451902 -0.080321997 0
4.5371652 0.728755 -0.080210999 0
4.558218 0.74782199 -0.080628 0
4.5507469 0.76227403 -0.080540001 0
4.548872 0.77764797 -0.080553003 0
4.5541658 0.79427803 -0.080692999 0
4.5451708 0.80842102 -0.080581002 0
4.5589681 0.826653 -0.080875002 0
4.552155 0.84119201 -0.080802999 0
4.5338731 0.853544 -0.080528997 0
4.5466671 0.87174702 -0.080807999 0
4.5421948 0.88668901 -0.080780998 0
4.5415711 0.902385 -0.080822997 0
4.5507898 0.92008698 -0.081041001 0
4.5456042 0.93491298 -0.081005 0
4.5407419 0.94979298 -0.080973998 0
4.5688272 0.39157501 0.080040999 0
4.573616 0.407437 0.080149002 0
4.5615301 0.42177999 0.079961002 0
4.5687389 0.43790099 0.080113001 0
4.5743351 0.45392001 0.080237001 0
4.5582652 0.46776399 0.079983003 0
4.5632458 0.48374099 0.080098003 0
4.5732188 0.50031 0.080302 0
4.5624051 0.51461202 0.080141999 0
4.5752358 0.53160101 0.080398001 0
4.568491 0.54634702 0.080311 0
4.570343 0.56211799 0.080376998 0
4.5689459 0.57750303 0.080385998 0
4.570075 0.59322 0.08044 0
4.5806632 0.61021799 0.080661997 0
4.5682511 0.62415999 0.080480002 0
4.5642219 0.63920498 0.080445997 0
4.5794411 0.65699899 0.080752999 0
4.5807219 0.67286497 0.080815002 0
4.5731678 0.68742698 0.080721997 0
4.5565801 0.70056403 0.080470003 0
4.5674829 0.717924 0.080704004 0
4.5562272 0.73181701 0.080548003 0
4.558784 0.74791503 0.080637999 0
4.5539808 0.76281601 0.080596998 0
4.5584431 0.779284 0.080721997 0
4.565104 0.79618502 0.080886997 0
4.5763922 0.81397402 0.081134997 0
4.554327 0.82581198 0.080792002 0
4.5695572 0.84440798 0.081111997 0
4.5777788 0.625462 0.24214 0
4.5636082 0.63911903 0.241502 0
4.5841799 0.65767902 0.242706 0
4.5739322 0.67186701 0.242282 0
4.5907559 0.69007099 0.243294 0
4.5900869 0.70571601 0.24338201 0
4.5959659 0.72240102 0.243821 0
