# .PCD v0.7 - Point Cloud Data file format
VERSION 0.7
FIELDS x y z intensity
SIZE 4 4 4 4
TYPE F F F F
COUNT 1 1 1 1
WIDTH 79
HEIGHT 1
VIEWPOINT 0 0 0 1 0 0 0
POINTS 79
DATA ascii
9.588748 -0.17684101 -0.83904803 0
9.6165485 -0.14510199 -0.841434 0
9.6250839 -0.112954 -0.84214199 0
9.6327419 -0.080743998 -0.84278399 0
9.6544008 -0.048555002 -0.84465998 0
9.6597166 -0.016194001 -0.84511602 0
9.6763763 0.016222 -0.846573 0
9.682972 0.048698001 -0.84715998 0
9.7070932 0.081367001 -0.849289 0
9.7087774 0.113936 -0.84946501 0
9.7324104 0.146851 -0.85157102 0
9.7429199 0.179685 -0.852539 0
9.7759199 0.213083 -0.85548401 0
9.7955761 0.246373 -0.85727203 0
9.6105757 -0.37074301 -0.50404298 0
9.6232405 -0.33892199 -0.50464499 0
9.6346865 -0.306986 -0.50518799 0
9.6651382 -0.27552101 -0.506733 0
9.6783457 -0.243424 -0.50738001 0
9.6874037 -0.211154 -0.507815 0
9.7052336 -0.17899001 -0.50871599 0
9.7151546 -0.14658999 -0.50920701 0
9.7328796 -0.114219 -0.510113 0
9.7489948 -0.081717998 -0.51094002 0
9.7705221 -0.049139 -0.51205701 0
9.7756014 -0.016388001 -0.51231802 0
9.7886143 0.016410001 -0.512999 0
9.7959204 0.049265999 -0.51338798 0
9.8221359 0.082332 -0.51477402 0
9.8393326 0.115469 -0.515692 0
9.8556356 0.14871 -0.51656997 0
9.856205 0.18177401 -0.51662898 0
9.8754082 0.215252 -0.51766998 0
9.8925591 0.248812 -0.51861 0
9.904768 0.282352 -0.519297 0
9.9365101 0.31660199 -0.52101398 0
9.9486246 0.350382 -0.52170801 0
9.9611921 0.38426799 -0.52243102 0
9.9625206 0.41777599 -0.52257198 0
9.9904385 0.45250699 -0.524113 0
10.00085 0.48658299 -0.52474201 0
10.012639 0.52081299 -0.52544898 0
10.02247 0.55502403 -0.52605897 0
10.039783 0.58975399 -0.52706897 0
10.050166 0.62418401 -0.52772099 0
9.6646671 -0.50271302 -0.168925 0
9.6905975 -0.471488 -0.16935 0
9.7010736 -0.43939999 -0.169506 0
9.7129383 -0.40731001 -0.169689 0
9.7250719 -0.375159 -0.16987801 0
9.7452192 -0.343218 -0.17020901 0
9.742116 -0.31040901 -0.17013501 0
9.767952 -0.27845201 -0.170569 0
9.7904644 -0.246244 -0.170947 0
9.8074999 -0.213772 -0.171231 0
9.797699 -0.180695 -0.171048 0
9.8333673 -0.14837401 -0.171661 0
9.8327799 -0.115392 -0.171643 0
9.8666906 -0.082704999 -0.17223001 0
9.8880701 -0.049729999 -0.172599 0
9.8961639 -0.016589999 -0.172738 0
9.9082661 0.01661 -0.172949 0
9.9191666 0.049885999 -0.173142 0
9.9333248 0.083264001 -0.173393 0
9.9450178 0.116709 -0.173603 0
9.9608383 0.150297 -0.173887 0
9.9826593 0.18410601 -0.17427699 0
9.9869909 0.217684 -0.174365 0
10.007929 0.25171399 -0.174744 0
10.026835 0.28583199 -0.17509 0
10.043969 0.32002601 -0.17540701 0
10.046628 0.353834 -0.175473 0
10.074041 0.388621 -0.175974 0
10.075292 0.42250499 -0.176019 0
10.044622 0.050517 0.175331 0
10.066436 0.084379002 0.175716 0
10.061932 0.118081 0.175644 0
10.062435 0.15183 0.17566 0
10.10248 0.186316 0.176369 0
