# .PCD v0.7 - Point Cloud Data file format
VERSION 0.7
FIELDS x y z intensity
SIZE 4 4 4 4
TYPE F F F F
COUNT 1 1 1 1
WIDTH 140
HEIGHT 1
VIEWPOINT 0 0 0 1 0 0 0
POINTS 140
DATA ascii
7.053638 -0.15374599 -0.86628199 0
7.0812311 -0.130596 -0.86961198 0
7.1154318 -0.107363 -0.87376302 0
7.1310649 -0.083686002 -0.87564403 0
7.1199698 -0.059680998 -0.87425202 0
7.1276908 -0.035847001 -0.87518001 0
7.1212292 -0.011938 -0.87437701 0
7.157454 0.011999 -0.87882501 0
7.1541901 0.035980001 -0.878434 0
7.1739249 0.060134001 -0.88087702 0
7.1730738 0.084178999 -0.88080198 0
7.174521 0.108255 -0.881019 0
7.218226 0.133123 -0.88643599 0
7.2170992 0.157309 -0.88635701 0
7.2299261 0.181843 -0.88800299 0
7.085721 -0.32093999 -0.62055498 0
7.0869441 -0.297189 -0.62057102 0
7.1088991 -0.27423701 -0.62241 0
7.1239328 -0.25089899 -0.623649 0
7.1211662 -0.226898 -0.62333602 0
7.121161 -0.20300101 -0.62327302 0
7.1486979 -0.1798 -0.62562698 0
7.1750398 -0.15639301 -0.62788302 0
7.1740618 -0.13230801 -0.62775499 0
7.1898451 -0.108486 -0.62910098 0
7.1918869 -0.084399998 -0.629251 0
7.1914911 -0.060281001 -0.62919497 0
7.212954 -0.036276001 -0.63105899 0
7.2238951 -0.01211 -0.63200903 0
7.2431302 0.012142 -0.63369203 0
7.2415042 0.036419 -0.63355702 0
7.2614918 0.060867999 -0.63532001 0
7.2654042 0.085262001 -0.635683 0
7.2821441 0.109879 -0.63717699 0
7.2853279 0.13436 -0.63749099 0
7.3003621 0.159124 -0.63884997 0
7.2961078 0.18350799 -0.63852799 0
7.3182321 0.208618 -0.64052099 0
7.3255582 0.233411 -0.64122802 0
7.3535471 0.258986 -0.64375001 0
7.3598642 0.28391799 -0.64438301 0
7.363512 0.30878699 -0.64478898 0
7.378129 0.334185 -0.64616299 0
7.388422 0.359478 -0.64716703 0
7.3937821 0.38459101 -0.64774603 0
7.3997798 0.409785 -0.64838803 0
7.4121008 0.43540001 -0.64959198 0
7.4217758 0.46094301 -0.65057099 0
7.4363899 0.48688501 -0.65199202 0
7.4573622 0.51337397 -0.65397799 0
7.4530568 0.53819001 -0.65375501 0
7.4568238 0.5636 -0.65424699 0
7.0885558 -0.48798499 -0.372374 0
7.11833 -0.46606001 -0.37385401 0
7.1202788 -0.44221801 -0.37387601 0
7.120203 -0.418253 -0.373797 0
7.1174159 -0.39414799 -0.373579 0
7.1558371 -0.37221399 -0.37552801 0
7.158771 -0.348304 -0.37561899 0
7.1590171 -0.32426 -0.375572 0
7.182014 -0.30117601 -0.376724 0
7.2026792 -0.277854 -0.37775701 0
7.1910529 -0.253263 -0.37709999 0
7.1993208 -0.229389 -0.377491 0
7.2141151 -0.20565 -0.37822899 0
7.223526 -0.18168201 -0.37868801 0
7.2501431 -0.15803 -0.380054 0
7.2587328 -0.13387001 -0.38047799 0
7.2648139 -0.109618 -0.38077599 0
7.2716322 -0.085336 -0.381116 0
7.2853341 -0.061067 -0.38182101 0
7.2997451 -0.036711998 -0.382568 0
7.3119078 -0.012258 -0.383201 0
7.319098 0.01227 -0.383578 0
7.3105292 0.036766998 -0.38313299 0
7.3431802 0.061551999 -0.38485301 0
7.357204 0.086340003 -0.38560101 0
7.356636 0.111003 -0.38558799 0
7.371913 0.135957 -0.38641101 0
7.3817692 0.160899 -0.386953 0
7.397449 0.186056 -0.387806 0
7.4073439 0.21115901 -0.38835999 0
7.4035292 0.23589499 -0.388199 0
7.432374 0.26176199 -0.38975501 0
7.448308 0.28733 -0.39063901 0
7.4531789 0.312547 -0.39094701 0
7.4654989 0.33814201 -0.391651 0
7.4828792 0.36407301 -0.39262399 0
7.5015621 0.39019799 -0.39367101 0
7.5012288 0.41540301 -0.39372501 0
7.5174122 0.44158599 -0.394649 0
7.5380168 0.468162 -0.39581099 0
7.5334859 0.493242 -0.39565799 0
7.5483842 0.51964003 -0.39653 0
7.5391288 0.544406 -0.396137 0
7.1881752 -0.446435 -0.12571201 0
7.2134428 -0.42372999 -0.126128 0
7.228868 -0.40031999 -0.12637299 0
7.2319632 -0.376174 -0.126405 0
7.2330818 -0.35192001 -0.126403 0
7.2561522 -0.32866001 -0.12678599 0
7.2697349 -0.30485499 -0.127005 0
7.2675972 -0.280359 -0.12695099 0
7.2744732 -0.256201 -0.127055 0
7.2860241 -0.232151 -0.127242 0
7.3096509 -0.20837399 -0.12764201 0
7.3049531 -0.18373001 -0.12754899 0
7.3242102 -0.15964399 -0.127875 0
7.3399458 -0.135368 -0.128141 0
7.3365211 -0.110699 -0.12807401 0
7.3494649 -0.086249001 -0.12829401 0
7.3726821 -0.061799999 -0.128695 0
7.3832231 -0.037131999 -0.128876 0
7.3923049 -0.012393 -0.129033 0
7.4043121 0.012413 -0.129243 0
7.405807 0.037246 -0.12927 0
7.4185238 0.062183999 -0.12949499 0
7.4293041 0.087186001 -0.12968799 0
7.4490509 0.112397 -0.13003799 0
7.4704728 0.137775 -0.13042 0
7.469595 0.16281299 -0.130413 0
7.4851542 0.188262 -0.130695 0
7.5044041 0.213926 -0.131043 0
7.5052252 0.239136 -0.13107 0
7.51968 0.264837 -0.131338 0
7.5420489 0.29094601 -0.131745 0
7.5454459 0.31641701 -0.131822 0
7.554029 0.342152 -0.131991 0
7.557457 0.36770201 -0.132072 0
7.4699411 -0.037567999 0.13039 0
7.4758949 -0.012533 0.130492 0
7.4932599 0.012562 0.130795 0
7.5090189 0.037765 0.131072 0
7.521914 0.063050002 0.1313 0
7.5261369 0.088321999 0.131378 0
7.529304 0.113608 0.131439 0
7.55407 0.13931701 0.131879 0
7.565896 0.164912 0.132094 0
7.5730119 0.19047201 0.132229 0
7.584816 0.21621799 0.132447 0
