# .PCD v0.7 - Point Cloud Data file format
VERSION 0.7
FIELDS x y z intensity
SIZE 4 4 4 4
TYPE F F F F
COUNT 1 1 1 1
WIDTH 277
HEIGHT 1
VIEWPOINT 0 0 0 1 0 0 0
POINTS 277
DATA ascii
5.449574 -0.063952997 -1.059361 0
5.479372 -0.045929 -1.065118 0
5.4610958 -0.027465001 -1.061541 0
5.4789038 -0.211357 -0.86841702 0
5.486578 -0.193233 -0.86952603 0
5.4846129 -0.17475399 -0.86911702 0
5.4952121 -0.15665001 -0.87070799 0
5.490438 -0.138092 -0.869874 0
5.479506 -0.119435 -0.86807299 0
5.4882112 -0.101217 -0.869394 0
5.4953871 -0.082919002 -0.87048203 0
5.480948 -0.064320996 -0.868155 0
5.4872208 -0.045995001 -0.86912 0
5.4894552 -0.027608 -0.86945403 0
5.489634 -0.009203 -0.86947298 0
5.4892159 0.0092019998 -0.86940598 0
5.4946122 0.027634 -0.87027103 0
5.480711 0.045940999 -0.86808801 0
5.476305 0.064267002 -0.86742002 0
5.4852381 0.082765996 -0.86887401 0
5.4710941 0.100901 -0.86668199 0
5.4785228 0.119414 -0.86791801 0
5.4845848 0.137945 -0.86894602 0
5.4797029 0.15620799 -0.86825103 0
5.481256 0.174647 -0.86858499 0
5.483284 0.19311699 -0.86900401 0
5.4866529 0.211656 -0.86964601 0
5.473443 0.22952799 -0.86766899 0
5.480587 0.248238 -0.86892802 0
5.5025721 -0.36027101 -0.67707598 0
5.5129352 -0.34239101 -0.67820603 0
5.5056062 -0.32340899 -0.67716801 0
5.510951 -0.30518499 -0.67769498 0
5.5148282 -0.28685701 -0.67804998 0
5.5013719 -0.267665 -0.67628199 0
5.5137892 -0.249741 -0.677701 0
5.5107198 -0.23109099 -0.67722499 0
5.5061321 -0.21240699 -0.67657 0
5.5139751 -0.194197 -0.67745 0
5.5152311 -0.17572901 -0.67752802 0
5.5105748 -0.157088 -0.67688698 0
5.504107 -0.138436 -0.67603201 0
5.4968381 -0.119813 -0.67508602 0
5.5143938 -0.1017 -0.67719698 0
5.502182 -0.083021 -0.675659 0
5.4978738 -0.064520001 -0.67509902 0
5.510169 -0.046188001 -0.67658597 0
5.5009971 -0.027666001 -0.67544502 0
5.499826 -0.0092200004 -0.67529398 0
5.4936452 0.0092099998 -0.67453498 0
5.4989719 0.027656 -0.67519599 0
5.4934988 0.046048 -0.67453998 0
5.4963598 0.064502001 -0.674914 0
5.5053878 0.083070002 -0.67605299 0
5.5057211 0.10154 -0.67613101 0
5.4999061 0.11988 -0.67546302 0
5.4781499 0.13778301 -0.67284399 0
5.5021381 0.156848 -0.67585099 0
5.4864359 0.174812 -0.67399102 0
5.4901638 0.193359 -0.67452401 0
5.5144949 0.21273001 -0.67759699 0
5.499898 0.230637 -0.67589498 0
5.5002451 0.249128 -0.67603701 0
5.4825191 0.26674801 -0.67396402 0
5.4910021 0.28561699 -0.67512101 0
5.5140929 0.30535901 -0.67808199 0
5.4973049 0.32292101 -0.67614698 0
5.4910612 0.341032 -0.67551601 0
5.4943318 0.359732 -0.676063 0
5.49301 0.37814501 -0.67605197 0
5.5040021 0.397448 -0.67756498 0
5.486063 0.41464701 -0.675524 0
5.496315 0.43395999 -0.67696202 0
5.4921198 0.452162 -0.67662799 0
5.5019622 0.47154999 -0.67803198 0
5.5010128 0.490053 -0.67811298 0
5.4967051 0.50825101 -0.67778802 0
5.518394 -0.491602 -0.48470801 0
5.5356359 -0.47443601 -0.48607999 0
5.5346022 -0.45565999 -0.485852 0
5.5131269 -0.435287 -0.483836 0
5.5337019 -0.41824701 -0.48551601 0
5.5297551 -0.39930701 -0.48504999 0
5.5375209 -0.38121 -0.485616 0
5.544148 -0.362993 -0.48608801 0
5.5354052 -0.343786 -0.48521799 0
5.5304322 -0.32486701 -0.48468301 0
5.5280972 -0.306135 -0.484386 0
5.5312362 -0.28771001 -0.48457399 0
5.5033951 -0.26776299 -0.48205301 0
5.5167379 -0.24987499 -0.48314601 0
5.517056 -0.23135599 -0.48310301 0
5.531795 -0.213397 -0.48432899 0
5.5254669 -0.194602 -0.483715 0
5.5221128 -0.17594901 -0.483367 0
5.5318651 -0.157695 -0.484171 0
5.5142722 -0.13869201 -0.48258799 0
5.530057 -0.120537 -0.48393199 0
5.5191789 -0.101788 -0.48294699 0
5.5178499 -0.083258003 -0.482804 0
5.5221381 -0.064805001 -0.48315701 0
5.5223532 -0.046289999 -0.48315999 0
5.5239239 -0.027781 -0.48328599 0
5.5266261 -0.009265 -0.48351699 0
5.508791 0.0092350002 -0.48195699 0
5.519815 0.027760999 -0.48292699 0
5.507607 0.046165999 -0.48186901 0
5.5189762 0.064767003 -0.48288 0
5.5301881 0.083443999 -0.48388299 0
5.519721 0.101798 -0.48299399 0
5.5241518 0.120409 -0.48341501 0
5.5213938 0.138871 -0.48321101 0
5.5255141 0.15751401 -0.48361501 0
5.5285192 0.176153 -0.48392701 0
5.5141211 0.194203 -0.482721 0
5.5279608 0.21325 -0.48399299 0
5.5270572 0.231776 -0.48397899 0
5.5311022 0.25052601 -0.484404 0
5.5220752 0.26867199 -0.48368999 0
5.505754 0.286385 -0.482342 0
5.5325499 0.306382 -0.48477599 0
5.5163231 0.324038 -0.48344699 0
5.5119982 0.34233299 -0.48316601 0
5.5185909 0.36131999 -0.48384699 0
5.527102 0.380492 -0.484703 0
5.5288911 0.39924499 -0.484974 0
5.5054989 0.416116 -0.483042 0
5.5150242 0.43543699 -0.48400301 0
5.5074811 0.45342699 -0.48347199 0
5.5241122 0.47344801 -0.48506799 0
5.5174899 0.491521 -0.48462901 0
5.4956388 0.50815201 -0.48285601 0
5.5086222 0.52798599 -0.48414999 0
5.5084648 0.54661602 -0.484294 0
5.5182958 0.56628102 -0.48532301 0
5.5025091 0.58331102 -0.48410401 0
5.5157461 0.60342199 -0.48544401 0
5.5192661 0.62254101 -0.48593399 0
5.5107012 0.640293 -0.485367 0
5.5175791 0.65984899 -0.48616499 0
5.5223851 0.67921197 -0.48678601 0
5.5090151 0.696325 -0.48581001 0
5.5202742 0.71656001 -0.487012 0
5.521924 0.73560899 -0.48737299 0
5.5568161 -0.62677598 -0.29306701 0
5.5432258 -0.60642803 -0.29224101 0
5.540834 -0.58737397 -0.292009 0
5.5483012 -0.56936002 -0.292301 0
5.5401201 -0.549757 -0.29177099 0
5.5549459 -0.532426 -0.292456 0
5.5387712 -0.51214099 -0.29151201 0
5.5570412 -0.49504501 -0.29238501 0
5.5500498 -0.47567099 -0.29193199 0
5.5545292 -0.45730001 -0.29208499 0
5.5478988 -0.43803301 -0.29165801 0
5.5469651 -0.41925001 -0.29153299 0
5.548965 -0.400695 -0.29156601 0
5.5534048 -0.382303 -0.29172999 0
5.5486059 -0.36328501 -0.291412 0
5.545238 -0.34439701 -0.29117301 0
5.5472369 -0.325854 -0.291219 0
5.5423298 -0.306923 -0.29090601 0
5.5492082 -0.288645 -0.29121399 0
5.5350819 -0.26930499 -0.29042399 0
5.538661 -0.25086799 -0.290566 0
5.553586 -0.232888 -0.29130599 0
5.539237 -0.21368399 -0.29051501 0
5.5448561 -0.19528501 -0.290773 0
5.5350232 -0.17636 -0.290225 0
5.5384979 -0.157884 -0.290378 0
5.5546732 -0.139708 -0.29120001 0
5.5512891 -0.121 -0.290999 0
5.5454578 -0.102273 -0.290674 0
5.5304589 -0.083448 -0.28987199 0
5.549119 -0.065121002 -0.29083699 0
5.5381289 -0.046422001 -0.29025099 0
5.546216 -0.027892999 -0.29066801 0
5.5425291 -0.009292 -0.290472 0
5.5433431 0.0092930002 -0.29051399 0
5.5545578 0.027935 -0.291105 0
5.5372658 0.046415001 -0.29020599 0
5.5443091 0.065064996 -0.29058501 0
5.538259 0.083566003 -0.29028001 0
5.539557 0.102164 -0.29036501 0
5.5345039 0.120634 -0.29012001 0
5.5256548 0.138978 -0.28967801 0
5.5349498 0.157783 -0.29019201 0
5.535512 0.176375 -0.29025099 0
5.5427108 0.195209 -0.29066101 0
5.5525432 0.21419799 -0.29121199 0
5.5438771 0.232481 -0.290797 0
5.545732 0.25118801 -0.29093701 0
5.5352869 0.269315 -0.29043499 0
5.533361 0.28782099 -0.29038301 0
5.544591 0.30704799 -0.29102501 0
5.5318599 0.32495099 -0.29041201 0
5.5292492 0.343404 -0.29033399 0
5.5376358 0.36256701 -0.29083601 0
5.5249238 0.38034201 -0.290234 0
5.5310531 0.39940101 -0.29062501 0
5.5282979 0.41783899 -0.29055199 0
5.5417261 0.437545 -0.29133299 0
5.5172372 0.45423001 -0.290124 0
5.5332441 0.474231 -0.29104799 0
5.547998 0.494239 -0.29190901 0
5.5483098 0.51302302 -0.29201499 0
5.545269 0.53149903 -0.29194701 0
5.5395222 0.54969698 -0.29173899 0
5.5279369 0.56727099 -0.291228 0
5.543386 0.58764398 -0.292144 0
5.5609198 -0.36409199 -0.097273998 0
5.5659571 -0.34568399 -0.097341001 0
5.5493102 -0.32597601 -0.097029999 0
5.5741339 -0.30868399 -0.097446002 0
5.5571499 -0.289058 -0.097130999 0
5.5654039 -0.27078 -0.097259 0
5.5720639 -0.252381 -0.09736 0
5.5596251 -0.233142 -0.097129002 0
5.5720549 -0.21495099 -0.097332999 0
5.5613351 -0.19586501 -0.097134002 0
5.5619469 -0.17721801 -0.097133003 0
5.5715208 -0.158825 -0.097291 0
5.5567508 -0.13976 -0.097024001 0
5.544148 -0.120844 -0.096795999 0
5.5672612 -0.102675 -0.097193003 0
5.5547042 -0.083814003 -0.096969001 0
5.5550561 -0.065191001 -0.096969999 0
5.5560632 -0.046572 -0.096984997 0
5.5553651 -0.027938999 -0.096969999 0
5.5555582 -0.0093130004 -0.096973002 0
5.5551419 0.0093130004 -0.096965 0
5.564992 0.027988 -0.097138003 0
5.556489 0.046576001 -0.096992001 0
5.5563741 0.065205999 -0.096992999 0
5.5526018 0.083782002 -0.096932001 0
5.579432 0.102899 -0.097406 0
5.555315 0.121088 -0.096991003 0
5.5501261 0.139594 -0.096908003 0
5.5594559 0.158482 -0.09708 0
5.5573869 0.177072 -0.097053997 0
5.5491419 0.195436 -0.096920997 0
5.5730529 0.21498901 -0.097350001 0
5.5437531 0.232476 -0.096850999 0
5.553771 0.25155199 -0.097041003 0
5.5471988 0.269894 -0.096941002 0
5.5589828 0.28915301 -0.097162999 0
5.540473 0.30682001 -0.096856996 0
5.5683961 0.327097 -0.097364001 0
5.5586839 0.34523201 -0.097213998 0
5.546474 0.36314601 -0.097020999 0
5.5528851 0.382267 -0.097154997 0
5.560761 0.401546 -0.097315997 0
5.5614939 0.42034799 -0.097352996 0
5.5513611 0.438306 -0.097200997 0
5.577014 -0.102855 0.097364001 0
5.5603991 -0.083899997 0.097067997 0
5.5968781 -0.065682001 0.0977 0
5.5870571 -0.046831999 0.097525999 0
5.575491 -0.028041 0.097322002 0
5.573833 -0.0093440004 0.097291999 0
5.5671582 0.0093329996 0.097175002 0
5.5916362 0.028122 0.097603001 0
5.5749888 0.046730999 0.097314999 0
5.57587 0.065435 0.097333997 0
5.5857 0.084282003 0.097510003 0
5.5777621 0.102868 0.097377002 0
5.5877161 0.121794 0.097557001 0
5.5777931 0.14028899 0.097391002 0
5.591444 0.159393 0.097639002 0
5.5933242 0.17821801 0.097681001 0
5.581213 0.196565 0.097480997 0
5.5691018 0.214837 0.097281002 0
5.57967 0.233982 0.097479001 0
5.570487 0.25230899 0.097332999 0
5.5792298 0.27145299 0.097501002 0
5.5962648 0.29109299 0.097815 0
5.5730991 0.30862701 0.097428001 0
