# .PCD v0.7 - Point Cloud Data file format
VERSION 0.7
FIELDS x y z intensity
SIZE 4 4 4 4
TYPE F F F F
COUNT 1 1 1 1
WIDTH 80
HEIGHT 1
VIEWPOINT 0 0 0 1 0 0 0
POINTS 80
DATA ascii
9.7804728 2.5650971 -0.88461798 0
9.7722874 2.598 -0.88466102 0
9.7869444 2.6370611 -0.886783 0
9.7765036 2.6694391 -0.88664299 0
9.7711401 2.7032101 -0.88697398 0
9.7734795 2.739166 -0.88801497 0
9.7826929 2.777158 -0.88969302 0
9.7916908 2.815222 -0.89136499 0
9.7707882 2.8447139 -0.89032501 0
9.7685032 2.879612 -0.89099199 0
9.7728491 2.9165421 -0.89227498 0
9.7790728 2.954143 -0.89374298 0
9.8182859 2.2954481 -0.52842897 0
9.8165846 2.3297901 -0.52875501 0
9.8175716 2.3648231 -0.52923203 0
9.7999487 2.39537 -0.52871197 0
9.8116875 2.43313 -0.52978301 0
9.8159456 2.4691501 -0.53045702 0
9.8162193 2.5042429 -0.530922 0
9.822814 2.541034 -0.53173703 0
9.8095779 2.572731 -0.53148401 0
9.8139772 2.6090829 -0.53219402 0
9.8106871 2.6434579 -0.532493 0
9.8103333 2.6786749 -0.53295797 0
9.8220644 2.717298 -0.534087 0
9.8030291 2.747448 -0.53355002 0
9.8129129 2.785737 -0.53459299 0
9.8291416 2.825989 -0.53599101 0
9.8180285 2.8584681 -0.53590399 0
9.8033257 2.8898771 -0.53562802 0
9.8092852 2.9274161 -0.53648698 0
9.8011503 2.960813 -0.53658199 0
9.8141737 3.0006909 -0.53784198 0
9.8062201 3.0342491 -0.53796101 0
9.8055515 3.0701029 -0.538486 0
9.8090286 3.107342 -0.53924602 0
9.8087921 3.1434929 -0.53980899 0
9.802618 3.1777949 -0.54005301 0
9.8123102 3.2173331 -0.54117799 0
9.806942 3.2520289 -0.54148 0
9.8045683 3.28777 -0.54195499 0
9.7961245 3.3215179 -0.54210103 0
9.7857704 3.3546309 -0.54214698 0
9.7967405 3.3951409 -0.543383 0
9.8056402 3.4350929 -0.54451197 0
9.8561916 2.304311 -0.176679 0
9.8591614 2.339895 -0.176872 0
9.8602695 2.375108 -0.17703401 0
9.8609638 2.410284 -0.177191 0
9.8493299 2.4424651 -0.177128 0
9.8531504 2.4785089 -0.17734499 0
9.865345 2.5167761 -0.177715 0
9.8461971 2.5470819 -0.177523 0
9.8423796 2.5813341 -0.177609 0
9.8628616 2.6220801 -0.178137 0
9.8531761 2.654907 -0.178121 0
9.855792 2.691088 -0.178331 0
9.8389702 2.7219751 -0.17819101 0
9.8514099 2.761008 -0.178583 0
9.8506804 2.796459 -0.178738 0
9.8376007 2.8284211 -0.178672 0
9.8464079 2.86673 -0.179006 0
9.8431034 2.901603 -0.179121 0
9.8566761 2.9415591 -0.179547 0
9.8558168 2.9773259 -0.179712 0
9.835268 3.0071411 -0.17952 0
9.8412352 3.045083 -0.179814 0
9.849246 3.0837841 -0.180149 0
9.8437757 3.1183491 -0.18023901 0
9.8495216 3.1565461 -0.180537 0
9.8295574 3.186528 -0.18036599 0
9.8197432 3.21977 -0.180383 0
9.8304949 3.2598391 -0.18077999 0
9.8793077 2.768826 0.179088 0
9.8866882 2.8066809 0.179392 0
9.8816948 2.841099 0.179473 0
9.8769159 2.875612 0.17956001 0
9.8698645 2.909492 0.179608 0
9.8644361 2.9438751 0.17968801 0
9.8935785 2.988734 0.180401 0
