# .PCD v0.7 - Point Cloud Data file format
VERSION 0.7
FIELDS x y z intensity
SIZE 4 4 4 4
TYPE F F F F
COUNT 1 1 1 1
WIDTH 370
HEIGHT 1
VIEWPOINT 0 0 0 1 0 0 0
POINTS 370
DATA ascii
4.2608981 -0.078582004 -0.983872 0
4.2487111 -0.064107999 -0.98100197 0
4.2903371 -0.050349001 -0.990569 0
4.2778339 -0.035858002 -0.98764902 0
4.3021498 -0.021637 -0.99324101 0
4.3011332 -0.00721 -0.99299502 0
4.3049059 0.0072169998 -0.99386603 0
4.313529 0.021694001 -0.99586803 0
4.3114901 0.036139999 -0.99541903 0
4.285253 -0.179701 -0.8337 0
4.2831488 -0.16522899 -0.83317798 0
4.2938552 -0.151226 -0.83515698 0
4.2877889 -0.13662 -0.83388299 0
4.2955642 -0.122452 -0.835311 0
4.3160238 -0.108554 -0.83921403 0
4.318224 -0.094122998 -0.83957601 0
4.3153009 -0.079585001 -0.83895099 0
4.3419299 -0.065514997 -0.84408098 0
4.3397188 -0.050928 -0.84361303 0
4.3344369 -0.036332 -0.84255701 0
4.3427801 -0.021841001 -0.84416002 0
4.3631272 -0.0073139998 -0.84810603 0
4.364152 0.0073159998 -0.84830499 0
4.3760481 0.022008 -0.85062701 0
4.3700409 0.036630999 -0.84947801 0
4.3761611 0.051355999 -0.85069698 0
4.3841782 0.066151999 -0.85229403 0
4.3939528 0.081036001 -0.85424203 0
4.382843 0.095532 -0.852139 0
4.3905139 0.110428 -0.85369802 0
4.4004421 0.125442 -0.85570502 0
4.4099588 0.140513 -0.85764301 0
4.4007282 0.15499 -0.85594398 0
4.4366641 0.171151 -0.86303997 0
4.4209571 0.18539201 -0.86010098 0
4.439671 0.20108999 -0.863868 0
4.4462848 0.21633001 -0.865291 0
4.4419808 0.231052 -0.8646 0
4.4395771 0.245855 -0.86428702 0
4.2879858 -0.28074801 -0.68060303 0
4.2938018 -0.26667401 -0.68138099 0
4.305984 -0.25294101 -0.68317503 0
4.3039398 -0.238344 -0.68272102 0
4.3149161 -0.224443 -0.68433797 0
4.3123422 -0.209814 -0.683815 0
4.3261981 -0.195951 -0.68590403 0
4.3190188 -0.181117 -0.68466598 0
4.3332381 -0.167161 -0.686827 0
4.3340712 -0.152642 -0.68687397 0
4.3448391 -0.138438 -0.68850303 0
4.3608232 -0.124313 -0.69096601 0
4.354259 -0.109516 -0.68986398 0
4.350369 -0.094824001 -0.68919301 0
4.3690348 -0.080576003 -0.69210398 0
4.351337 -0.065656997 -0.68926197 0
4.3930769 -0.051555 -0.69584203 0
4.3813081 -0.036725 -0.69395399 0
4.3915281 -0.022086 -0.695557 0
4.3969998 -0.007371 -0.69641602 0
4.4015198 0.0073790001 -0.69713199 0
4.4124832 0.022191999 -0.69887602 0
4.4154029 0.037011001 -0.69935501 0
4.4232039 0.051908001 -0.70061398 0
4.434566 0.066912003 -0.70244497 0
4.4371428 0.081831999 -0.70289302 0
4.451355 0.097025 -0.70519203 0
4.4438758 0.11177 -0.70406199 0
4.45329 0.126948 -0.70561701 0
4.4615688 0.142157 -0.70700097 0
4.4812689 0.15782601 -0.71020198 0
4.4747391 0.17262 -0.70925498 0
4.481307 0.187923 -0.710392 0
4.4991822 0.203786 -0.71332997 0
4.5005231 0.218969 -0.71365499 0
4.5122242 0.234706 -0.71563101 0
4.5177641 0.25018501 -0.71663898 0
4.5310278 0.26616001 -0.71888 0
4.529099 0.281288 -0.71872002 0
4.527627 0.29643899 -0.71864003 0
4.538125 0.31241 -0.72046798 0
4.5382018 0.32770699 -0.72065097 0
4.5593801 0.34460601 -0.72419298 0
4.5607762 0.36009401 -0.724603 0
4.5584412 0.37529299 -0.724428 0
4.5677862 0.39148599 -0.72611701 0
4.5701809 0.40713099 -0.72671098 0
4.573472 0.422885 -0.72745597 0
4.5685859 0.437886 -0.72690803 0
4.6069269 0.45715401 -0.733248 0
4.3014059 -0.368655 -0.53008199 0
4.3021641 -0.35419399 -0.53002602 0
4.308496 -0.34017599 -0.530662 0
4.3147159 -0.326114 -0.53129101 0
4.318471 -0.31184 -0.53162098 0
4.3244829 -0.297703 -0.53223598 0
4.3364401 -0.283921 -0.53358698 0
4.3439531 -0.26978901 -0.53439701 0
4.3319349 -0.25446501 -0.53281099 0
4.3458381 -0.24066401 -0.534419 0
4.3538609 -0.226468 -0.53530902 0
4.3595638 -0.212111 -0.53592002 0
4.3627939 -0.19760799 -0.53623199 0
4.3834958 -0.18382099 -0.53869802 0
4.3867002 -0.16922399 -0.53901899 0
4.4063458 -0.15518799 -0.54136598 0
4.3876562 -0.13980199 -0.53900898 0
4.3981018 -0.125375 -0.54023802 0
4.4009151 -0.110689 -0.54053402 0
4.4198241 -0.096337996 -0.54281402 0
4.4268351 -0.081642002 -0.543639 0
4.4284549 -0.066820003 -0.54380703 0
4.428586 -0.051971 -0.54379898 0
4.4433098 -0.037245002 -0.54558802 0
4.43996 -0.022329999 -0.545165 0
4.44313 -0.0074490001 -0.54554802 0
4.4540982 0.0074669998 -0.54689401 0
4.475832 0.02251 -0.54956901 0
4.4656 0.037432 -0.548325 0
4.4664822 0.052416001 -0.54845202 0
4.4932828 0.067798004 -0.551768 0
4.4912829 0.082831003 -0.55155301 0
4.5029192 0.098149002 -0.55301899 0
4.5057259 0.113325 -0.55340803 0
4.5006132 0.128297 -0.55282903 0
4.5308161 0.144363 -0.55659598 0
4.5333109 0.159659 -0.55696499 0
4.5296178 0.17473701 -0.55658001 0
4.5354719 0.190194 -0.55737501 0
4.5545201 0.206292 -0.55979699 0
4.5585089 0.221791 -0.56037599 0
4.5559511 0.23698001 -0.56015599 0
4.5684118 0.25299001 -0.56178898 0
4.5762582 0.26881701 -0.56286198 0
4.5700011 0.28382799 -0.56220597 0
4.588676 0.30043599 -0.56462401 0
4.595335 0.31634799 -0.56557101 0
4.6169538 0.33339301 -0.56836599 0
4.6081991 0.34829599 -0.56742901 0
4.5957861 0.36285901 -0.56604701 0
4.6210251 0.38044599 -0.569309 0
4.6350698 0.39725199 -0.57120103 0
4.6224971 0.41179201 -0.56981802 0
4.6301498 0.42812499 -0.57093501 0
4.6319542 0.44396001 -0.571338 0
4.6481199 0.46124199 -0.57352 0
4.6562662 0.47782099 -0.57471901 0
4.667623 0.49480599 -0.57632202 0
4.6862049 0.51266998 -0.57882601 0
4.6794152 0.52781099 -0.57820201 0
4.6842289 0.54426497 -0.57902002 0
4.7083678 0.56307501 -0.58223301 0
4.6933379 0.577245 -0.58061099 0
4.7150302 0.59596801 -0.583538 0
4.729723 0.61394298 -0.58560801 0
4.733068 0.630521 -0.586281 0
4.7492938 0.64889598 -0.588557 0
4.737267 0.66343898 -0.58733898 0
4.7599869 0.68290102 -0.59043598 0
4.7365861 0.69576001 -0.58781999 0
4.3047042 -0.470934 -0.37885901 0
4.285625 -0.45431101 -0.37704399 0
4.302022 -0.44146901 -0.37835401 0
4.3178658 -0.42846999 -0.379619 0
4.3053722 -0.41265801 -0.37839699 0
4.320806 -0.39952201 -0.37963301 0
4.3329821 -0.38600001 -0.38058701 0
4.3426418 -0.37219 -0.38132399 0
4.3581629 -0.35880399 -0.382579 0
4.3520961 -0.34361801 -0.38194299 0
4.367547 -0.330107 -0.38319999 0
4.370213 -0.31557599 -0.38333899 0
4.369051 -0.300771 -0.383147 0
4.3815069 -0.286872 -0.384152 0
4.3956509 -0.273 -0.38530999 0
4.3918238 -0.257983 -0.38489699 0
4.381691 -0.242649 -0.383935 0
4.394526 -0.22858401 -0.38499001 0
4.4192238 -0.215014 -0.38708901 0
4.4233379 -0.200351 -0.38738799 0
4.4288788 -0.18572401 -0.387817 0
4.436594 -0.171148 -0.38844001 0
4.4393768 -0.156351 -0.38863501 0
4.4319201 -0.141212 -0.38793901 0
4.4567132 -0.127046 -0.39006999 0
4.4571948 -0.112105 -0.39007699 0
4.4596782 -0.097207002 -0.39026299 0
4.4740229 -0.082512997 -0.39149201 0
4.4644928 -0.067364 -0.390636 0
4.468091 -0.052434999 -0.39093399 0
4.4878759 -0.037618 -0.39265099 0
4.4931798 -0.022597 -0.393107 0
4.490015 -0.0075269998 -0.39282501 0
4.5022149 0.0075480002 -0.393893 0
4.5220151 0.022741999 -0.39562899 0
4.5114059 0.037815999 -0.39471 0
4.5350199 0.05322 -0.39679 0
4.5320868 0.068383999 -0.39655101 0
4.564096 0.084174 -0.39937401 0
4.5477629 0.099127002 -0.39797199 0
4.5541959 0.114545 -0.39856601 0
4.554409 0.129831 -0.39862001 0
4.5778279 0.145861 -0.400711 0
4.5809078 0.161336 -0.401025 0
4.5742469 0.176459 -0.40049201 0
4.599256 0.19286899 -0.40273601 0
4.5869069 0.20775899 -0.40171301 0
4.6007118 0.22384401 -0.40298599 0
4.6180029 0.240208 -0.404569 0
4.618094 0.255741 -0.40464899 0
4.61551 0.27112299 -0.40450001 0
4.6291852 0.28750399 -0.405781 0
4.6473331 0.30427599 -0.40745899 0
4.6491222 0.32005101 -0.40770799 0
4.647707 0.335614 -0.40768 0
4.6673002 0.352763 -0.4095 0
4.6557202 0.36759099 -0.40858999 0
4.6682062 0.38433 -0.409796 0
4.673511 0.400547 -0.41037801 0
4.6978078 0.41850099 -0.41263199 0
4.702529 0.434818 -0.41317201 0
4.6845531 0.44900101 -0.41172299 0
4.7186909 0.468245 -0.414859 0
4.701036 0.48241499 -0.41344699 0
4.7420149 0.50269198 -0.41719699 0
4.7288389 0.517335 -0.416188 0
4.7301998 0.533539 -0.41646299 0
4.7416692 0.55093902 -0.417633 0
4.7596302 0.569206 -0.41938001 0
4.766109 0.58619499 -0.420122 0
4.3062768 -0.55897701 -0.227575 0
4.3046732 -0.54409999 -0.227393 0
4.3434801 -0.53421497 -0.22934701 0
4.3383322 -0.51882201 -0.228982 0
4.33532 -0.50372499 -0.228733 0
4.3497772 -0.49062899 -0.229407 0
4.350163 -0.475907 -0.229342 0
4.359962 -0.462192 -0.229776 0
4.3508821 -0.44648299 -0.22921699 0
4.3531079 -0.43196699 -0.229257 0
4.3651381 -0.41838601 -0.22981501 0
4.3867812 -0.40562201 -0.230882 0
4.3874559 -0.39085299 -0.230847 0
4.3815951 -0.37552801 -0.230471 0
4.4047389 -0.36263901 -0.23162299 0
4.3940601 -0.34693199 -0.23099899 0
4.4157729 -0.33375201 -0.232081 0
4.412807 -0.318652 -0.231867 0
4.4321918 -0.30511701 -0.232831 0
4.4359012 -0.29043299 -0.23297299 0
4.4457979 -0.27611399 -0.23344301 0
4.4387321 -0.260739 -0.233025 0
4.4413791 -0.24595501 -0.233119 0
4.4561572 -0.23178899 -0.233853 0
4.4610391 -0.217048 -0.234069 0
4.4599142 -0.202007 -0.233973 0
4.4846621 -0.188063 -0.235237 0
4.4732671 -0.172563 -0.23460799 0
4.4855819 -0.157978 -0.23522501 0
4.4920611 -0.14312799 -0.23553801 0
4.4884701 -0.127951 -0.23532601 0
4.5312638 -0.113968 -0.23754799 0
4.5208182 -0.098539002 -0.236982 0
4.5140162 -0.083250001 -0.236609 0
4.5278392 -0.068319999 -0.237321 0
4.532362 -0.053188998 -0.237547 0
4.5247679 -0.037928 -0.237141 0
4.5497508 -0.022882 -0.238445 0
4.5517349 -0.0076310001 -0.238546 0
4.5645051 0.0076520001 -0.239216 0
4.5609331 0.022938 -0.239031 0
4.5693221 0.038300999 -0.239476 0
4.58922 0.053856 -0.240527 0
4.5904479 0.069264002 -0.240602 0
4.6055832 0.084939003 -0.241409 0
4.5943999 0.100143 -0.240839 0
4.6034241 0.115783 -0.241331 0
4.621912 0.13175499 -0.242322 0
4.6220589 0.14727101 -0.24235401 0
4.6271472 0.162964 -0.24264801 0
4.6347022 0.178791 -0.243075 0
4.6395268 0.19455799 -0.243361 0
4.645813 0.210427 -0.243726 0
4.6581688 0.226639 -0.244413 0
4.6523728 0.24199601 -0.24415 0
4.6659622 0.25839201 -0.24490701 0
4.690372 0.27552101 -0.246235 0
4.7018471 0.29201701 -0.246888 0
4.6957078 0.30744299 -0.246618 0
4.7030759 0.32376501 -0.247061 0
4.721602 0.34095001 -0.24809299 0
4.719048 0.35667399 -0.24801999 0
4.7128611 0.37210199 -0.247759 0
4.729939 0.38941199 -0.248724 0
4.7357659 0.40588301 -0.249101 0
4.745779 0.42277399 -0.24969999 0
4.7516561 0.43935999 -0.25008601 0
4.7609701 0.45632601 -0.250655 0
4.7528291 0.471632 -0.25030801 0
4.4394102 -0.365493 -0.077752002 0
4.436892 -0.35031301 -0.077687003 0
4.4607449 -0.33715099 -0.078084998 0
4.4651928 -0.32243499 -0.078143001 0
4.4700651 -0.30772501 -0.078210004 0
4.4657559 -0.29238799 -0.078116998 0
4.492537 -0.279017 -0.078569002 0
4.4809909 -0.263221 -0.078350998 0
4.5015702 -0.24928799 -0.078694999 0
4.5172119 -0.234965 -0.078955002 0
4.501976 -0.21904001 -0.078675002 0
4.5231719 -0.204872 -0.079033002 0
4.5233951 -0.189688 -0.079025 0
4.5393381 -0.17511199 -0.079292998 0
4.5478768 -0.160172 -0.079433002 0
4.557837 -0.145224 -0.079598002 0
4.5448961 -0.12955999 -0.079364002 0
4.567802 -0.114887 -0.079755999 0
4.567224 -0.099551 -0.079740003 0
4.577724 -0.084425002 -0.079917997 0
4.581872 -0.069135003 -0.079985999 0
4.5816059 -0.053766999 -0.079977997 0
4.5826569 -0.038412999 -0.079993002 0
4.602613 -0.023148 -0.080339998 0
4.6075268 -0.0077240001 -0.080425002 0
4.6148348 0.0077360002 -0.080551997 0
4.6225591 0.023248 -0.080688 0
4.6253829 0.038771 -0.080738999 0
4.6384401 0.054434001 -0.080969997 0
4.6380038 0.069982 -0.080966003 0
4.6603942 0.085950002 -0.081361003 0
4.6675692 0.101738 -0.081491999 0
4.6715188 0.117495 -0.081566997 0
4.6692891 0.13310599 -0.081536002 0
4.6732411 0.148901 -0.081612997 0
4.6930051 0.16528399 -0.081967004 0
4.6985502 0.181254 -0.082074001 0
4.7069192 0.197384 -0.082231998 0
4.702621 0.213 -0.082168996 0
4.716146 0.22946 -0.082418002 0
4.7268748 0.24587101 -0.082618997 0
4.7177029 0.26125699 -0.082474001 0
4.7418571 0.27854499 -0.082911998 0
4.7433481 0.29459399 -0.082955003 0
4.7402158 0.310357 -0.082918003 0
4.7486682 0.326904 -0.083084002 0
4.7569709 0.34350401 -0.083249003 0
4.7799869 0.36127999 -0.083673 0
4.6219401 -0.100743 0.080695003 0
4.6154199 -0.08512 0.080576003 0
4.6377311 -0.069977999 0.080960996 0
4.6398039 -0.054450002 0.080994003 0
4.630487 -0.038814001 0.080828004 0
4.6512041 -0.023391999 0.081188001 0
4.662756 -0.0078170002 0.081389003 0
4.6695681 0.007828 0.081508003 0
4.684855 0.023561001 0.081775002 0
4.6873088 0.03929 0.081820004 0
4.6901922 0.055041 0.081873 0
4.695992 0.070857003 0.081978001 0
4.710381 0.086871997 0.082234003 0
4.715579 0.102784 0.082330003 0
4.7215161 0.118753 0.082439996 0
4.7202611 0.13455901 0.082425997 0
4.744483 0.151171 0.082856998 0
4.7211461 0.16627499 0.082459003 0
4.7510591 0.18327899 0.082992002 0
4.7607918 0.199643 0.083172999 0
4.7505078 0.215169 0.083005004 0
4.7796502 0.23255 0.083527997 0
4.772655 0.248252 0.083420001 0
4.7838588 0.26492101 0.083630003 0
